0,0,0,0,0,0,0,0,0,0,0,0,0,0,0,0,0,0,0,0,0,0,0,0,0,0,0,0,0,0,0,0,0,0,0,0,0,0,0,0,0,0,0,0,0,0,0,0,0,0,0,0,0,0,0,0,0,0,0,0,0,0,0,0,0,0,0,0,0,0,0,0,0,0,0,0,0,0,0,0,0,0,0,0,0,0,0,0,0,0,0,0,0,0,0,0,0,0,0,0,0,0,0,0,0,0,0,0,0,0,0,0,0,0,0,0,0,0,0,0,0,0,0,0,0,0,0,0,0,165,165,165,165,165,165,168,161,161,153,161,149,149,144,144,144,138,138,135,135,135,129,130,134,132,133,137,132,134,132,138,137,138,140,146,147,147,143,143,140,140,142,138,137,141,143,140,140,139,151,150,139,137,137,143,147,143,144,147,141,149,140,149,158,162,158,162,162,162,162,162,166,162,162,162,162,158,162,158,153,158,153,150,146,150,142,127,124,112,116,107,113,106,106,110,107,101,104,105,109,103,94,91,77,70,66,72,70,72,61,54,51,51,51,54,54,57,55,61,67,74,76,78,74,80,83,88,91,93,99,105,99,99,98,99,99,99,106,106,105,116,111,110,115,115,115,113,114,111,114,118,114,118,118,118,121,118,113,116,116,116,110,114,120,122,119,114,116,120,124,126,128,133,139,137,144,150,151,155,155,164,162,166,170,168,168,168,176,176,182,178,182,183,181,184,182,183,185,0,0,0,0,0,0,0,0
0,0,0,0,0,0,0,0,0,0,0,0,0,0,0,0,0,0,0,0,0,0,0,0,0,0,0,0,0,0,0,0,0,0,0,0,0,0,0,0,0,0,0,0,0,0,0,0,0,0,0,0,0,0,0,0,0,0,0,0,0,0,0,0,0,0,0,0,0,0,0,0,0,0,0,0,0,0,0,0,0,0,0,0,0,0,0,0,0,0,0,0,0,0,0,0,0,0,0,0,0,0,0,0,0,0,0,0,0,0,0,0,0,0,0,0,0,0,0,0,0,0,0,0,0,0,0,0,0,0,165,162,0,165,165,161,161,156,156,153,153,149,144,140,138,138,138,132,135,132,130,136,137,134,138,135,137,136,138,133,138,138,143,147,144,144,143,143,143,140,140,142,140,140,143,146,140,143,148,139,139,134,134,137,143,148,144,140,140,144,144,149,157,153,162,158,162,158,158,158,158,158,158,158,158,162,153,153,157,153,150,150,146,142,140,131,120,116,116,111,110,104,106,102,102,115,105,96,92,86,85,76,71,70,66,72,70,72,66,54,51,54,57,57,59,59,61,64,72,82,75,71,79,76,80,84,88,91,94,103,97,96,95,99,99,102,100,100,109,108,110,109,104,112,110,113,110,113,110,113,110,113,118,118,113,114,117,113,110,116,114,118,123,114,117,110,111,114,118,126,126,133,133,139,142,144,150,155,151,159,155,165,162,168,168,170,176,175,175,178,178,179,183,184,187,185,183,0,0,0,0,0,0,0,0
0,0,0,0,0,0,0,0,0,0,0,0,0,0,0,0,0,0,0,0,0,0,0,0,0,0,0,0,0,0,0,0,0,0,0,0,0,0,0,0,0,0,0,0,0,0,0,0,0,0,0,0,0,0,0,0,0,0,0,0,0,0,0,0,0,0,0,0,0,0,0,0,0,0,0,0,0,0,0,0,0,0,0,0,0,0,0,0,0,0,0,0,0,0,0,0,0,0,0,0,0,0,0,0,0,0,0,0,0,0,0,0,0,0,0,0,0,0,0,0,0,0,0,0,0,0,0,0,0,0,0,0,165,158,161,161,156,156,156,149,149,146,142,140,140,135,132,134,130,132,130,134,134,138,138,137,138,138,139,141,138,143,141,143,143,144,144,143,143,142,140,140,142,140,143,143,140,143,139,143,134,139,131,134,138,142,145,140,140,144,145,150,157,157,157,157,153,158,162,153,153,158,158,158,153,153,157,153,150,150,150,146,146,142,146,131,130,119,115,111,110,110,100,97,96,106,104,88,83,77,75,73,71,73,66,63,67,70,63,57,54,59,59,59,62,59,67,70,76,78,74,74,74,76,78,77,84,91,88,91,93,91,95,93,97,95,97,100,100,97,107,97,102,108,102,104,107,107,105,110,110,113,110,113,113,111,108,110,108,110,111,112,112,113,111,106,113,113,118,124,126,130,135,137,142,142,149,146,155,158,155,162,166,168,170,173,173,175,175,178,178,177,183,183,184,191,188,0,0,0,0,0,0,0,0
0,0,0,0,0,0,0,0,0,0,0,0,0,0,0,0,0,0,0,0,0,0,0,0,0,0,0,0,0,0,0,0,0,0,0,0,0,0,0,0,0,0,0,0,0,0,0,0,0,0,0,0,0,0,0,0,0,0,0,0,0,0,0,0,0,0,0,0,0,0,0,0,0,0,0,0,0,0,0,0,0,0,0,0,0,0,0,0,0,0,0,0,0,0,0,0,0,0,0,0,0,0,0,0,0,0,0,0,0,0,0,0,0,0,0,0,0,0,0,0,0,0,0,0,0,0,0,0,0,0,158,158,153,161,153,161,155,156,153,153,149,148,142,142,135,132,132,132,127,130,132,137,141,138,144,140,144,144,139,146,143,146,151,148,140,144,144,139,145,145,140,142,141,141,140,141,141,140,146,138,138,134,139,136,142,149,148,142,143,144,153,154,154,154,154,153,157,153,153,153,153,158,153,153,153,153,150,150,150,146,146,146,146,142,140,132,132,129,117,110,113,104,95,95,91,92,94,90,81,77,71,75,79,75,68,60,60,61,57,62,60,64,61,66,66,66,65,70,71,76,74,78,78,80,83,87,87,84,90,93,93,90,91,90,90,90,94,95,94,94,95,94,97,95,102,99,100,104,105,105,105,105,105,111,108,108,108,108,106,104,110,107,105,109,106,107,107,113,115,118,124,128,133,133,139,142,144,147,151,155,162,166,166,170,173,170,175,177,179,179,182,182,184,180,184,192,194,0,0,0,0,0,0,0,0
0,0,0,0,0,0,0,0,0,0,0,0,0,0,0,0,0,0,0,0,0,0,0,0,0,0,0,0,0,0,0,0,0,0,0,0,0,0,0,0,0,0,0,0,0,0,0,0,0,0,0,0,0,0,0,0,0,0,0,0,0,0,0,0,0,0,0,0,0,0,0,0,0,0,0,0,0,0,0,0,0,0,0,0,0,0,0,0,0,0,0,0,0,0,0,0,0,0,0,0,0,0,0,0,0,0,0,0,0,0,0,0,0,0,0,0,0,0,0,0,0,0,0,0,0,0,0,0,0,0,162,160,153,153,153,153,154,153,153,149,146,142,142,136,135,135,132,132,130,132,135,137,136,138,144,145,146,147,146,146,148,149,160,155,149,143,140,139,139,143,148,143,148,143,140,138,141,141,140,140,138,136,136,136,140,150,156,150,144,149,159,157,150,150,154,150,154,153,153,150,150,150,153,150,150,150,146,146,146,146,142,146,142,142,140,130,131,130,120,115,102,100,93,87,92,101,96,92,81,71,71,70,81,70,62,63,66,63,60,62,62,68,69,74,71,69,70,71,78,80,78,78,78,75,84,87,87,85,89,90,89,89,87,89,87,87,90,87,94,92,94,90,95,92,95,99,99,99,99,102,108,107,105,105,107,103,110,106,104,107,103,105,105,105,103,107,113,115,125,128,128,124,133,140,139,139,147,149,153,153,159,168,165,170,173,174,177,177,179,182,180,184,187,189,192,182,187,0,0,0,0,0,0,0,0
0,0,0,0,0,0,0,0,0,0,0,0,0,0,0,0,0,0,0,0,0,0,0,0,0,0,0,0,0,0,0,0,0,0,0,0,0,0,0,0,0,0,0,0,0,0,0,0,0,0,0,0,0,0,0,0,0,0,0,0,0,0,0,0,0,0,0,0,0,0,0,0,0,0,0,0,0,0,0,0,0,0,0,0,0,0,0,0,0,0,0,0,0,0,0,0,0,0,0,0,0,0,0,0,0,0,0,0,0,0,0,0,0,0,0,0,0,0,0,0,0,0,0,0,0,0,0,0,0,0,156,160,153,151,149,149,151,146,146,149,145,142,145,135,135,132,126,132,132,134,139,137,136,145,145,145,144,147,149,144,152,152,157,155,152,140,143,144,141,146,148,153,150,148,143,142,138,140,138,140,141,142,137,147,142,153,156,152,150,150,159,157,154,150,146,150,146,150,150,150,146,150,150,150,146,146,146,146,142,142,142,142,136,140,136,136,128,128,125,112,102,95,93,91,91,96,105,101,91,73,70,69,67,64,66,68,64,59,62,67,66,69,74,83,77,71,75,80,84,89,93,90,81,82,79,84,82,80,86,89,89,85,89,80,84,84,93,84,90,95,90,92,90,90,92,92,95,92,102,105,109,105,108,103,106,109,106,104,104,100,105,105,105,107,103,107,111,121,131,133,130,133,133,145,142,142,142,150,149,155,161,162,163,173,171,177,174,177,173,175,180,189,192,197,193,182,182,0,0,0,0,0,0,0,0
0,0,0,0,0,0,0,0,0,0,0,0,0,0,0,0,0,0,0,0,0,0,0,0,0,0,0,0,0,0,0,0,0,0,0,0,0,0,0,0,0,0,0,0,0,0,0,0,0,0,0,0,0,0,0,0,0,0,0,0,0,0,0,0,0,0,0,0,0,0,0,0,0,0,0,0,0,0,0,0,0,0,0,0,0,0,0,0,0,0,0,0,0,0,0,0,0,0,0,0,0,0,0,0,0,0,0,0,0,0,0,0,0,0,0,0,0,0,0,0,0,0,0,0,0,0,0,0,0,160,156,156,153,153,150,149,146,146,146,142,142,141,136,136,132,132,128,132,134,138,137,141,143,142,148,143,149,147,150,148,150,153,152,152,150,144,147,143,143,145,143,153,152,147,142,142,136,142,138,138,141,139,147,139,142,145,152,151,148,156,157,155,150,150,146,146,150,146,146,146,146,150,146,146,146,142,146,142,142,136,142,136,136,136,136,132,128,128,125,115,102,93,93,92,98,107,105,101,88,66,70,68,67,61,60,64,62,66,73,75,76,81,83,83,76,81,83,90,100,102,99,94,88,82,85,82,81,81,81,83,89,90,86,86,84,78,82,85,87,90,88,86,92,85,90,90,92,95,94,102,107,100,104,109,111,104,106,104,100,102,102,102,98,107,100,105,110,125,133,138,143,134,128,140,138,139,139,147,147,155,155,162,163,170,173,170,168,168,171,175,181,193,199,203,193,184,182,0,0,0,0,0,0,0,0
0,0,0,0,0,0,0,0,0,0,0,0,0,0,0,0,0,0,0,0,0,0,0,0,0,0,0,0,0,0,0,0,0,0,0,0,0,0,0,0,0,0,0,0,0,0,0,0,0,0,0,0,0,0,0,0,0,0,0,0,0,0,0,0,0,0,0,0,0,0,0,0,0,0,0,0,0,0,0,0,0,0,0,0,0,0,0,0,0,0,0,0,0,0,0,0,0,0,0,0,0,0,0,0,0,0,0,0,0,0,0,0,0,0,0,0,0,0,0,0,0,0,0,0,0,0,0,0,0,160,158,156,151,150,148,146,144,142,142,136,144,138,136,134,134,130,134,132,134,140,137,139,145,140,145,148,150,154,151,153,150,152,153,150,150,144,143,144,144,141,143,150,153,150,143,139,142,140,142,142,143,142,142,144,142,142,148,148,146,146,159,153,157,150,150,142,146,142,146,142,142,146,150,142,146,142,146,136,136,136,136,136,132,136,132,128,132,125,125,113,97,98,87,89,101,98,95,86,75,70,68,64,65,60,64,66,64,69,78,91,93,96,92,82,79,82,87,91,94,101,96,90,88,87,85,81,81,83,78,86,89,95,89,84,76,78,82,79,85,90,90,85,84,85,86,90,85,90,94,94,97,94,105,111,113,106,99,97,99,99,95,98,100,97,107,103,109,117,131,138,127,133,128,130,136,139,140,140,145,153,153,157,162,170,173,168,163,168,163,171,178,188,196,189,186,183,181,0,0,0,0,0,0,0,0
0,0,0,0,0,0,0,0,0,0,0,0,0,0,0,0,0,0,0,0,0,0,0,0,0,0,0,0,0,0,0,0,0,0,0,0,0,0,0,0,0,0,0,0,0,0,0,0,0,0,0,0,0,0,0,0,0,0,0,0,0,0,0,0,0,0,0,0,0,0,0,0,0,0,0,0,0,0,0,0,0,0,0,0,0,0,0,0,0,0,0,0,0,0,0,0,0,0,0,0,0,0,0,0,0,0,0,0,0,0,0,0,0,0,0,0,0,0,0,0,0,0,0,0,0,0,0,0,0,160,156,151,151,145,146,142,140,135,140,136,137,138,134,134,130,130,132,137,132,142,142,141,143,145,146,150,150,151,153,148,150,150,150,150,147,147,146,144,143,144,143,146,155,148,142,142,143,146,142,143,148,150,146,141,139,144,147,147,148,148,147,148,150,150,146,146,142,142,142,136,142,146,136,142,146,140,136,136,136,136,132,132,132,132,132,128,128,125,125,121,102,98,92,91,87,90,81,75,72,67,69,63,66,61,62,67,67,73,84,100,110,102,107,93,82,85,87,87,89,87,91,85,93,85,85,87,83,84,83,81,96,98,89,79,78,76,74,79,73,85,81,85,82,80,84,86,85,87,90,90,90,93,97,108,113,107,99,93,92,100,95,97,100,100,98,103,103,111,118,125,123,118,127,126,132,135,137,137,144,147,151,154,162,173,167,168,163,163,166,168,175,180,183,178,179,179,0,0,0,0,0,0,0,0,0
0,0,0,0,0,0,0,0,0,0,0,0,0,0,0,0,0,0,0,0,0,0,0,0,0,0,0,0,0,0,0,0,0,0,0,0,0,0,0,0,0,0,0,0,0,0,0,0,0,0,0,0,0,0,0,0,0,0,0,0,0,0,0,0,0,0,0,0,0,0,0,0,0,0,0,0,0,0,0,0,0,0,0,0,0,0,0,0,0,0,0,0,0,0,0,0,0,0,0,0,0,0,0,0,0,0,0,0,0,0,0,0,0,0,0,0,0,0,0,0,0,0,0,0,0,0,0,0,0,158,151,149,151,147,142,140,138,135,135,135,132,136,132,130,130,128,132,132,134,138,140,139,144,143,145,143,150,148,153,151,153,150,152,148,146,147,144,143,144,143,140,149,150,144,147,143,145,142,146,152,159,159,153,151,146,148,147,147,147,150,154,150,150,154,150,142,142,140,136,142,136,140,142,143,136,136,140,132,136,132,132,128,136,128,129,125,125,129,121,121,112,102,104,94,87,87,80,76,69,65,68,64,60,66,66,72,66,80,87,97,107,112,109,96,89,92,92,90,84,86,90,85,88,91,88,87,89,87,80,91,88,90,86,81,76,71,74,73,73,76,85,90,79,79,82,82,85,86,84,85,90,85,92,100,109,106,95,94,93,94,91,98,100,100,100,98,105,105,109,115,117,118,124,124,131,137,135,140,139,148,146,151,159,170,164,163,163,162,163,168,171,171,179,177,179,179,0,0,0,0,0,0,0,0,0
0,0,0,0,0,0,0,0,0,0,0,0,0,0,0,0,0,0,0,0,0,0,0,0,0,0,0,0,0,0,0,0,0,0,0,0,0,0,0,0,0,0,0,0,0,0,0,0,0,0,0,0,0,0,0,0,0,0,0,0,0,0,0,0,0,0,0,0,0,0,0,0,0,0,0,0,0,0,0,0,0,0,0,0,0,0,0,0,0,0,0,0,0,0,0,0,0,0,0,0,0,0,0,0,0,0,0,0,0,0,0,0,0,0,0,0,0,0,0,0,0,0,0,0,0,0,0,0,151,148,148,146,147,145,142,138,138,132,135,130,134,128,128,130,124,130,128,134,135,134,138,141,139,145,146,145,146,150,150,151,150,148,148,147,147,146,147,143,147,140,143,143,147,143,144,143,145,143,148,155,164,163,160,159,156,155,154,157,158,154,152,152,150,150,146,146,142,136,136,132,136,136,140,136,140,132,132,132,132,128,128,132,128,129,125,129,121,125,121,119,104,107,104,98,87,93,78,75,73,66,68,60,66,66,68,68,71,74,87,94,107,104,107,96,87,94,100,108,88,90,90,87,91,88,87,90,84,89,87,87,94,84,87,79,76,79,71,71,76,85,89,85,76,82,74,79,82,82,80,84,82,87,95,93,95,100,91,92,89,93,95,99,102,102,102,103,105,105,111,111,111,118,124,123,128,131,135,137,139,144,148,150,151,155,165,162,157,165,163,170,170,176,174,176,177,179,0,0,0,0,0,0,0,0,0
0,0,0,0,0,0,0,0,0,0,0,0,0,0,0,0,0,0,0,0,0,0,0,0,0,0,0,0,0,0,0,0,0,0,0,0,0,0,0,0,0,0,0,0,0,0,0,0,0,0,0,0,0,0,0,0,0,0,0,0,0,0,0,0,0,0,0,0,0,0,0,0,0,0,0,0,0,0,0,0,0,0,0,0,0,0,0,0,0,0,0,0,0,0,0,0,0,0,0,0,0,0,0,0,0,0,0,0,0,0,0,0,0,0,0,0,0,0,0,0,0,0,0,0,0,0,0,0,151,153,146,145,143,142,139,138,132,132,130,128,128,128,124,124,124,124,128,132,132,135,138,138,139,139,145,143,145,148,149,149,151,150,148,150,146,147,146,147,146,140,143,143,135,140,143,144,145,139,148,153,160,157,157,157,160,160,160,160,156,156,152,153,150,146,150,142,136,142,136,136,136,136,132,132,132,132,136,132,132,132,136,132,132,132,132,129,125,129,121,119,102,104,95,95,98,87,81,80,72,66,66,66,62,66,68,68,72,76,84,95,109,110,106,96,90,98,100,109,103,92,90,93,90,92,93,90,87,90,90,85,91,90,87,84,92,76,76,76,78,83,92,87,78,73,73,76,76,79,80,84,84,82,86,93,90,92,94,90,90,97,97,99,100,102,103,105,107,107,110,107,115,115,118,124,125,128,135,135,139,144,137,146,148,150,153,154,160,161,168,168,170,174,174,176,177,0,0,0,0,0,0,0,0,0,0
0,0,0,0,0,0,0,0,0,0,0,0,0,0,0,0,0,0,0,0,0,0,0,0,0,0,0,0,0,0,0,0,0,0,0,0,0,0,0,0,0,0,0,0,0,0,0,0,0,0,0,0,0,0,0,0,0,0,0,0,0,0,0,0,0,0,0,0,0,0,0,0,0,0,0,0,0,0,0,0,0,0,0,0,0,0,0,0,0,0,0,0,0,0,0,0,0,0,0,0,0,0,0,0,0,0,0,0,0,0,0,0,0,0,0,0,0,0,0,0,0,0,0,0,0,0,0,0,152,153,146,146,143,139,139,135,138,132,130,132,126,121,121,121,124,124,128,128,134,132,132,138,142,139,143,140,146,145,143,149,147,149,148,150,150,146,147,147,142,143,137,138,140,138,140,143,140,147,147,148,151,151,164,160,157,154,152,156,156,149,146,152,147,148,142,142,138,142,136,136,136,136,132,136,132,136,136,136,136,140,132,136,132,139,132,132,132,132,125,116,101,94,101,96,93,93,91,78,74,67,66,66,66,75,75,72,78,78,87,101,115,113,99,96,94,96,102,105,104,99,95,98,93,95,97,97,93,92,90,88,88,91,94,97,99,91,74,82,78,83,85,84,74,73,73,74,73,74,76,82,82,86,87,90,93,93,92,94,94,99,94,102,100,100,109,107,110,114,112,115,113,111,126,118,127,123,134,134,134,139,144,140,144,147,156,157,157,163,163,168,174,174,174,177,177,0,0,0,0,0,0,0,0,0,0
0,0,0,0,0,0,0,0,0,0,0,0,0,0,0,0,0,0,0,0,0,0,0,0,0,0,0,0,0,0,0,0,0,0,0,0,0,0,0,0,0,0,0,0,0,0,0,0,0,0,0,0,0,0,0,0,0,0,0,0,0,0,0,0,0,0,0,0,0,0,0,0,0,0,0,0,0,0,0,0,0,0,0,0,0,0,0,0,0,0,0,0,0,0,0,0,0,0,0,0,0,0,0,0,0,0,0,0,0,0,0,0,0,0,0,0,0,0,0,0,0,0,0,0,0,0,0,152,151,143,146,143,143,139,135,135,130,130,129,123,128,121,116,116,121,124,126,128,132,134,132,138,135,142,139,143,140,145,143,145,147,146,146,146,150,150,146,146,142,143,138,137,141,138,135,146,138,145,142,146,141,146,148,160,162,156,152,152,152,149,152,152,146,147,141,141,136,142,142,142,136,142,136,136,136,142,142,136,142,136,136,140,136,136,136,136,132,136,117,101,101,97,93,95,93,89,80,83,72,69,74,68,72,79,75,76,79,83,87,99,111,97,92,90,94,99,103,101,101,102,100,97,98,97,95,92,94,92,95,95,95,94,97,101,95,91,80,80,76,87,83,79,76,74,71,74,71,76,73,79,88,90,90,93,87,97,95,94,96,99,102,106,104,106,112,116,116,116,114,114,113,119,118,121,123,123,128,135,132,136,139,137,147,151,160,154,157,161,165,170,168,174,174,174,0,0,0,0,0,0,0,0,0,0,0
0,0,0,0,0,0,0,0,0,0,0,0,0,0,0,0,0,0,0,0,0,0,0,0,0,0,0,0,0,0,0,0,0,0,0,0,0,0,0,0,0,0,0,0,0,0,0,0,0,0,0,0,0,0,0,0,0,0,0,0,0,0,0,0,0,0,0,0,0,0,0,0,0,0,0,0,0,0,0,0,0,0,0,0,0,0,0,0,0,0,0,0,0,0,0,0,0,0,0,0,0,0,0,0,0,0,0,0,0,0,0,0,0,0,0,0,0,0,0,0,0,0,0,0,0,0,152,148,148,148,143,143,136,139,135,135,130,127,127,128,119,121,123,112,121,116,126,126,126,135,132,138,140,135,139,139,140,145,143,144,143,144,147,146,146,146,146,148,142,141,137,138,137,141,138,141,143,148,142,142,144,139,146,147,153,155,148,152,150,150,158,157,150,154,146,136,139,144,136,142,142,142,132,142,136,142,142,142,142,142,136,136,140,136,140,136,136,132,120,108,100,97,95,94,87,83,81,77,80,78,73,71,82,82,76,78,81,81,93,100,99,91,90,97,99,100,103,104,104,99,95,100,97,97,100,100,97,99,95,93,90,92,96,95,91,90,83,80,82,81,81,87,78,74,74,73,71,76,76,85,85,88,92,92,95,93,97,95,99,103,106,104,109,113,122,127,125,127,118,119,125,115,121,124,124,123,130,130,135,132,136,137,141,154,164,159,159,162,176,181,173,173,175,174,0,0,0,0,0,0,0,0,0,0,0
0,0,0,0,0,0,0,0,0,0,0,0,0,0,0,0,0,0,0,0,0,0,0,0,0,0,0,0,0,0,0,0,0,0,0,0,0,0,0,0,0,0,0,0,0,0,0,0,0,0,0,0,0,0,0,0,0,0,0,0,0,0,0,0,0,0,0,0,0,0,0,0,0,0,0,0,0,0,0,0,0,0,0,0,0,0,0,0,0,0,0,0,0,0,0,0,0,0,0,0,0,0,0,0,0,0,0,0,0,0,0,0,0,0,0,0,0,0,0,0,0,0,0,0,0,0,148,148,143,143,140,140,136,132,132,130,127,127,123,123,119,119,120,117,113,121,121,126,126,132,132,132,130,137,135,139,136,140,140,140,146,144,144,146,146,149,143,148,139,138,139,135,135,138,135,134,140,145,137,142,136,141,144,146,151,152,145,150,143,157,160,153,162,153,150,148,137,137,140,136,138,142,136,144,142,146,150,146,142,142,142,142,142,140,136,140,140,131,122,112,113,97,95,91,85,85,83,87,87,81,82,86,78,77,79,79,89,89,91,91,91,93,95,99,97,104,107,107,104,102,97,104,100,102,109,109,104,97,100,95,95,93,90,92,90,88,79,83,79,82,88,91,78,74,80,76,76,76,82,85,88,88,90,97,92,97,95,100,100,107,103,107,110,113,132,131,136,135,131,121,121,121,121,124,130,128,128,135,137,137,139,144,141,158,161,161,162,159,175,183,184,179,175,174,0,0,0,0,0,0,0,0,0,0,0
0,0,0,0,0,0,0,0,0,0,0,0,0,0,0,0,0,0,0,0,0,0,0,0,0,0,0,0,0,0,0,0,0,0,0,0,0,0,0,0,0,0,0,0,0,0,0,0,0,0,0,0,0,0,0,0,0,0,0,0,0,0,0,0,0,0,0,0,0,0,0,0,0,0,0,0,0,0,0,0,0,0,0,0,0,0,0,0,0,0,0,0,0,0,0,0,0,0,0,0,0,0,0,0,0,0,0,0,0,0,0,0,0,0,0,0,0,0,0,0,0,0,0,0,0,148,150,142,142,145,142,140,136,132,132,127,130,124,123,123,119,113,115,113,118,113,119,121,126,132,130,132,132,137,135,132,136,136,136,140,138,144,143,146,143,144,144,141,135,133,135,135,131,131,128,137,138,133,136,131,134,143,144,144,150,151,150,150,156,157,160,155,156,151,153,150,148,133,134,131,138,141,143,134,145,146,146,150,146,146,142,140,142,142,146,136,146,140,131,119,117,102,96,91,89,89,87,86,91,87,87,90,85,83,83,89,91,91,91,97,94,91,99,101,101,101,104,109,107,105,104,104,104,110,113,123,107,106,100,100,97,92,93,93,90,88,84,87,79,81,91,83,82,83,80,74,74,76,84,82,91,95,99,97,94,97,100,104,102,107,110,118,113,118,128,134,138,137,121,121,119,123,121,127,133,135,137,132,137,142,143,147,145,154,155,155,157,162,173,182,182,181,174,172,0,0,0,0,0,0,0,0,0,0,0
0,0,0,0,0,0,0,0,0,0,0,0,0,0,0,0,0,0,0,0,0,0,0,0,0,0,0,0,0,0,0,0,0,0,0,0,0,0,0,0,0,0,0,0,0,0,0,0,0,0,0,0,0,0,0,0,0,0,0,0,0,0,0,0,0,0,0,0,0,0,0,0,0,0,0,0,0,0,0,0,0,0,0,0,0,0,0,0,0,0,0,0,0,0,0,0,0,0,0,0,0,0,0,0,0,0,0,0,0,0,0,0,0,0,0,0,0,0,0,0,0,0,0,0,143,144,142,144,142,140,138,138,135,132,127,132,124,124,120,116,116,113,121,113,115,113,119,126,123,128,130,127,132,130,132,132,135,132,136,137,135,138,143,145,149,144,135,138,133,135,130,131,124,131,131,132,135,130,133,134,130,141,147,145,145,153,163,163,157,161,162,157,160,158,153,153,150,144,128,134,131,136,134,131,138,148,154,148,142,146,146,146,146,146,142,146,146,140,146,133,123,101,95,92,97,89,88,83,89,89,91,90,87,93,93,86,97,97,101,106,101,97,97,99,100,102,108,107,111,109,105,113,113,117,127,123,111,108,104,97,97,97,95,95,90,90,86,88,88,86,84,84,86,81,82,76,78,82,82,90,88,100,98,97,97,99,101,106,108,115,110,116,118,118,123,131,131,128,126,126,126,127,127,127,133,141,137,137,139,147,147,145,151,155,151,153,157,158,165,168,173,173,172,172,0,0,0,0,0,0,0,0,0,0,0
0,0,0,0,0,0,0,0,0,0,0,0,0,0,0,0,0,0,0,0,0,0,0,0,0,0,0,0,0,0,0,0,0,0,0,0,0,0,0,0,0,0,0,0,0,0,0,0,0,0,0,0,0,0,0,0,0,0,0,0,0,0,0,0,0,0,0,0,0,0,0,0,0,0,0,0,0,0,0,0,0,0,0,0,0,0,0,0,0,0,0,0,0,0,0,0,0,0,0,0,0,0,0,0,0,0,0,0,0,0,0,0,0,0,0,0,0,0,0,0,0,0,143,140,138,138,144,136,140,136,137,135,133,131,127,127,124,120,120,116,116,119,116,110,119,113,119,113,125,119,126,127,132,127,132,127,127,132,133,137,132,136,145,148,142,138,133,135,131,131,124,127,127,127,127,131,131,129,130,130,127,136,141,151,151,156,165,165,168,159,155,152,158,158,153,153,140,142,129,130,130,130,130,134,142,146,154,153,147,154,150,146,146,137,138,142,146,146,144,131,117,104,93,95,94,93,85,93,97,87,85,81,80,91,91,93,100,106,113,105,105,99,98,102,102,106,108,111,113,109,109,109,119,115,122,115,112,104,106,106,101,101,99,95,99,95,93,88,88,88,89,91,95,85,84,82,76,82,82,86,94,100,95,93,99,101,103,114,114,109,120,116,123,123,123,118,126,127,127,128,132,126,129,127,136,138,142,140,145,143,145,149,149,151,156,154,160,162,168,166,165,170,172,172,0,0,0,0,0,0,0,0,0,0,0
0,0,0,0,0,0,0,0,0,0,0,0,0,0,0,0,0,0,0,0,0,0,0,0,0,0,0,0,0,0,0,0,0,0,0,0,0,0,0,0,0,0,0,0,0,0,0,0,0,0,0,0,0,0,0,0,0,0,0,0,0,0,0,0,0,0,0,0,0,0,0,0,0,0,0,0,0,0,0,0,0,0,0,0,0,0,0,0,0,0,0,0,0,0,0,0,0,0,0,0,0,0,0,0,0,0,0,0,0,0,0,0,0,0,0,0,0,0,0,0,0,147,140,136,138,136,138,132,132,134,128,131,128,125,127,125,124,119,116,120,120,118,118,119,116,113,119,119,119,119,123,123,129,127,126,127,127,134,133,133,130,134,135,139,132,131,130,131,127,124,127,124,122,127,127,125,125,127,126,130,127,132,142,152,152,151,154,161,161,157,147,156,162,158,156,142,132,136,122,132,126,126,124,135,146,153,157,140,142,140,137,140,140,133,141,146,150,146,137,120,108,103,97,90,93,88,93,94,102,93,85,78,83,81,87,93,101,107,101,106,100,106,98,102,102,109,105,109,114,109,112,115,115,117,113,117,113,114,115,109,104,101,101,103,103,91,95,93,88,91,94,97,97,94,85,84,76,82,82,86,98,96,95,97,97,101,106,108,114,119,113,120,120,120,118,124,122,127,132,130,132,134,136,136,139,139,139,140,142,143,149,149,149,156,158,160,161,157,165,163,165,169,172,172,0,0,0,0,0,0,0,0,0,0,0
0,0,0,0,0,0,0,0,0,0,0,0,0,0,0,0,0,0,0,0,0,0,0,0,0,0,0,0,0,0,0,0,0,0,0,0,0,0,0,0,0,0,0,0,0,0,0,0,0,0,0,0,0,0,0,0,0,0,0,0,0,0,0,0,0,0,0,0,0,0,0,0,0,0,0,0,0,0,0,0,0,0,0,0,0,0,0,0,0,0,0,0,0,0,0,0,0,0,0,0,0,0,0,0,0,0,0,0,0,0,0,0,0,0,0,0,0,0,153,147,149,142,138,138,132,134,132,134,128,128,128,128,123,131,123,123,119,119,120,123,122,124,120,120,116,116,122,119,116,119,121,123,125,126,130,127,127,127,131,127,128,130,127,130,131,126,130,127,124,130,119,121,127,120,120,125,125,123,123,126,129,133,138,148,145,147,148,152,154,159,155,158,158,158,149,141,134,125,128,128,128,126,140,142,155,162,158,146,138,126,130,132,140,137,144,141,148,143,132,118,103,99,97,97,90,93,97,108,110,107,101,87,84,81,87,87,92,94,97,108,106,99,100,106,104,109,109,114,110,116,117,115,118,118,127,129,119,109,114,109,107,109,103,109,103,99,91,99,93,93,98,97,103,103,91,82,78,82,83,85,90,95,98,97,103,101,108,111,118,118,114,117,124,121,124,122,132,130,135,135,135,139,140,143,141,136,142,144,147,149,149,155,152,156,158,160,163,168,169,167,172,169,172,0,0,0,0,0,0,0,0,0,0,0,0
0,0,0,0,0,0,0,0,0,0,0,0,0,0,0,0,0,0,0,0,0,0,0,0,0,0,0,0,0,0,0,0,0,0,0,0,0,0,0,0,0,0,0,0,0,0,0,0,0,0,0,0,0,0,0,0,0,0,0,0,0,0,0,0,0,0,0,0,0,0,0,0,0,0,0,0,0,0,0,0,0,0,0,0,0,0,0,0,0,0,0,0,0,0,0,0,0,0,0,0,0,0,0,0,0,0,0,0,0,0,0,0,0,0,0,0,0,153,151,147,141,139,136,136,132,130,128,126,126,128,123,123,123,123,120,123,116,123,123,125,127,125,122,120,120,120,120,116,123,120,125,123,124,130,127,132,132,131,131,128,134,128,130,127,127,123,124,127,119,121,119,120,115,117,117,117,117,117,125,132,127,131,133,139,142,139,139,148,156,159,156,162,158,157,141,134,127,126,125,125,128,130,146,152,162,165,153,139,125,128,127,136,145,144,138,140,140,131,122,114,109,103,99,95,99,99,109,112,112,112,107,91,87,81,81,88,89,97,99,101,102,106,100,109,104,110,106,118,122,120,125,117,119,125,132,134,121,116,114,111,112,107,109,106,107,103,104,91,97,93,96,100,106,97,94,82,80,80,85,87,90,90,93,101,101,101,106,111,113,116,120,119,124,127,127,129,130,135,132,138,137,145,146,139,134,144,142,144,146,150,155,152,161,158,163,167,165,168,167,172,167,167,172,0,0,0,0,0,0,0,0,0,0,0,0
0,0,0,0,0,0,0,0,0,0,0,0,0,0,0,0,0,0,0,0,0,0,0,0,0,0,0,0,0,0,0,0,0,0,0,0,0,0,0,0,0,0,0,0,0,0,0,0,0,0,0,0,0,0,0,0,0,0,0,0,0,0,0,0,0,0,0,0,0,0,0,0,0,0,0,0,0,0,0,0,0,0,0,0,0,0,0,0,0,0,0,0,0,0,0,0,0,0,0,0,0,0,0,0,0,0,0,0,0,0,0,0,0,0,0,151,151,149,144,141,139,139,136,132,126,127,128,126,120,120,120,120,123,120,120,120,120,120,123,125,127,125,123,123,120,119,124,120,120,120,122,124,127,127,135,132,131,131,135,132,132,130,134,134,127,124,127,119,124,119,119,115,117,117,117,117,123,125,130,137,134,131,137,137,136,143,148,152,155,150,157,151,153,147,134,138,129,129,127,127,129,132,150,157,158,153,152,138,129,126,130,146,148,136,132,130,130,122,119,109,109,101,101,101,97,102,108,109,108,102,99,87,98,81,81,93,92,97,99,100,99,100,104,105,109,109,118,122,129,125,119,117,123,125,132,138,129,117,116,111,116,113,109,111,104,104,95,104,95,106,101,101,101,95,91,81,82,83,86,90,90,92,94,98,101,101,111,111,116,118,120,122,124,132,124,136,135,135,138,140,145,145,143,141,141,139,142,149,148,155,155,158,161,163,158,169,171,169,170,166,169,172,172,0,0,0,0,0,0,0,0,0,0,0,0
0,0,0,0,0,0,0,0,0,0,0,0,0,0,0,0,0,0,0,0,0,0,0,0,0,0,0,0,0,0,0,0,0,0,0,0,0,0,0,0,0,0,0,0,0,0,0,0,0,0,0,0,0,0,0,0,0,0,0,0,0,0,0,0,0,0,0,0,0,0,0,0,0,0,0,0,0,0,0,0,0,0,0,0,0,0,0,0,0,0,0,0,0,0,0,0,0,0,0,0,0,0,0,0,0,0,0,0,0,0,0,0,0,0,151,147,144,144,141,139,139,136,133,131,128,126,120,120,120,120,118,118,118,118,120,120,123,123,123,130,127,125,123,125,123,124,123,124,124,124,124,126,130,127,132,132,135,137,132,132,136,135,137,134,131,128,124,127,117,117,120,117,120,117,123,117,125,125,132,137,138,133,134,134,139,143,146,148,150,144,145,139,135,132,128,128,130,129,131,131,135,138,148,145,145,142,139,136,130,134,136,142,140,138,130,120,115,117,109,116,109,106,101,97,97,99,97,99,103,89,92,87,81,89,84,91,103,102,101,100,99,109,105,109,109,113,118,124,125,122,126,126,129,126,129,126,129,120,117,115,113,116,113,111,104,104,111,100,99,99,103,97,95,101,91,83,79,86,86,88,90,90,98,97,107,107,108,115,117,119,122,122,129,129,130,132,139,142,139,142,138,142,140,140,142,146,151,151,155,155,161,159,166,164,166,165,169,167,170,169,167,167,0,0,0,0,0,0,0,0,0,0,0,0,0
0,0,0,0,0,0,0,0,0,0,0,0,0,0,0,0,0,0,0,0,0,0,0,0,0,0,0,0,0,0,0,0,0,0,0,0,0,0,0,0,0,0,0,0,0,0,0,0,0,0,0,0,0,0,0,0,0,0,0,0,0,0,0,0,0,0,0,0,0,0,0,0,0,0,0,0,0,0,0,0,0,0,0,0,0,0,0,0,0,0,0,0,0,0,0,0,0,0,0,0,0,0,0,0,0,0,0,0,152,153,147,153,147,146,148,146,139,141,144,135,138,133,130,131,126,120,117,120,115,118,114,118,118,118,120,120,126,123,128,130,130,128,123,131,123,125,125,125,124,123,129,129,130,132,132,135,137,135,138,136,139,133,135,140,138,128,128,125,123,120,117,117,125,122,122,123,127,130,134,130,133,131,131,134,139,144,149,146,145,139,130,132,129,125,126,129,133,132,131,134,133,142,144,137,135,133,131,131,133,138,136,129,136,132,123,120,115,112,111,111,109,107,98,98,94,97,100,93,83,87,83,76,91,90,101,104,107,106,103,100,111,111,115,110,113,109,116,124,122,131,138,140,139,135,125,129,134,129,127,122,117,118,120,120,122,114,104,107,100,99,95,99,104,101,97,85,88,86,87,87,92,94,97,98,104,109,109,118,121,127,125,130,127,129,131,136,139,139,142,142,139,144,144,144,146,148,152,158,157,160,165,174,171,172,167,167,169,167,167,169,169,167,0,0,0,0,0,0,0,0,0,0,0,0,0
0,0,0,0,0,0,0,0,0,0,0,0,0,0,0,0,0,0,0,0,0,0,0,0,0,0,0,0,0,0,0,0,0,0,0,0,0,0,0,0,0,0,0,0,0,0,0,0,0,0,0,0,0,0,0,0,0,0,0,0,0,0,0,0,0,0,0,0,0,0,0,0,0,0,0,0,0,0,0,0,0,0,0,0,0,0,0,0,0,0,0,0,0,0,0,0,0,0,0,0,0,0,0,0,0,0,152,0,149,147,146,139,146,144,141,144,141,137,135,133,135,130,126,126,126,117,120,115,112,111,118,115,120,126,120,126,126,126,132,126,132,128,128,123,128,125,128,125,125,131,127,134,132,134,132,136,135,136,139,139,137,138,137,135,137,132,128,129,125,122,120,114,122,122,123,127,125,130,133,131,122,129,129,134,145,160,152,145,141,137,142,130,126,124,126,132,130,139,132,132,136,140,142,139,134,134,134,142,145,143,134,131,129,128,121,123,118,118,115,111,108,107,101,101,98,99,95,92,87,85,83,83,93,99,101,97,99,99,106,112,127,129,122,120,118,114,118,118,122,136,146,152,142,133,134,131,134,138,129,126,123,126,124,136,135,131,118,110,100,101,94,99,97,107,107,97,88,89,84,90,88,94,101,101,109,112,121,131,131,128,125,128,130,131,136,140,140,143,150,147,148,147,145,148,154,154,155,157,167,169,177,177,179,170,170,167,167,167,167,169,164,169,0,0,0,0,0,0,0,0,0,0,0,0,0
0,0,0,0,0,0,0,0,0,0,0,0,0,0,0,0,0,0,0,0,0,0,0,0,0,0,0,0,0,0,0,0,0,0,0,0,0,0,0,0,0,0,0,0,0,0,0,0,0,0,0,0,0,0,0,0,0,0,0,0,0,0,0,0,0,0,0,0,0,0,0,0,0,0,0,0,0,0,0,0,0,0,0,0,0,0,0,0,0,0,0,0,0,0,0,0,0,0,0,0,0,0,0,0,0,152,151,153,149,146,141,139,141,139,138,138,139,135,133,131,130,131,123,126,117,123,115,115,111,115,116,120,119,126,126,126,130,130,130,132,130,130,128,134,128,128,128,128,131,131,131,134,132,134,135,135,136,142,139,144,146,142,138,139,132,132,134,130,122,123,117,120,123,127,127,129,129,131,130,128,129,128,131,140,154,159,158,146,145,140,144,133,130,124,128,132,139,137,137,139,134,142,143,144,142,137,144,153,157,151,136,128,124,127,128,125,118,120,118,111,111,107,107,96,104,97,99,92,95,87,90,91,97,95,98,94,99,100,114,117,133,136,133,130,120,118,117,123,130,133,148,142,136,134,130,137,138,132,134,132,124,132,136,140,141,144,127,120,102,99,97,95,98,100,106,94,88,92,87,90,90,101,101,101,109,119,123,125,129,124,128,131,134,139,137,140,146,146,152,158,153,151,148,150,152,158,164,171,169,171,176,172,181,172,167,167,169,167,167,170,0,0,0,0,0,0,0,0,0,0,0,0,0,0,0
0,0,0,0,0,0,0,0,0,0,0,0,0,0,0,0,0,0,0,0,0,0,0,0,0,0,0,0,0,0,0,0,0,0,0,0,0,0,0,0,0,0,0,0,0,0,0,0,0,0,0,0,0,0,0,0,0,0,0,0,0,0,0,0,0,0,0,0,0,0,0,0,0,0,0,0,0,0,0,0,0,0,0,0,0,0,0,0,0,0,0,0,0,0,0,0,0,0,0,0,0,0,0,0,152,151,153,155,149,144,141,141,133,141,135,133,135,133,131,130,124,127,123,117,120,119,115,111,113,116,116,122,127,123,127,130,127,131,133,133,133,130,132,130,128,128,132,128,128,131,135,131,136,135,136,138,138,139,141,142,143,142,143,134,146,132,130,130,123,122,114,123,123,127,129,131,129,134,131,134,136,139,134,144,150,158,150,143,145,150,144,138,132,124,128,135,130,141,139,137,141,143,145,151,150,147,142,153,159,150,139,128,130,133,136,131,126,115,118,118,114,107,107,107,104,104,105,105,100,90,90,97,99,98,99,102,100,96,118,112,124,129,131,128,123,117,126,117,130,132,140,140,132,136,141,143,142,134,138,136,132,128,140,133,132,134,131,116,114,105,99,95,91,92,97,91,90,79,86,93,95,99,103,109,109,112,123,120,120,122,130,130,135,137,143,143,146,148,148,160,156,154,156,156,159,159,171,175,175,174,172,172,169,170,170,167,165,167,167,0,0,0,0,0,0,0,0,0,0,0,0,0,0,0,0
0,0,0,0,0,0,0,0,0,0,0,0,0,0,0,0,0,0,0,0,0,0,0,0,0,0,0,0,0,0,0,0,0,0,0,0,0,0,0,0,0,0,0,0,0,0,0,0,0,0,0,0,0,0,0,0,0,0,0,0,0,0,0,0,0,0,0,0,0,0,0,0,0,0,0,0,0,0,0,0,0,0,0,0,0,0,0,0,0,0,0,0,0,0,0,0,0,0,0,0,0,0,0,152,152,152,151,148,149,143,138,136,135,133,135,133,131,130,128,127,123,124,117,119,117,115,113,113,113,113,117,124,127,123,127,130,135,130,130,137,133,133,133,133,130,130,132,134,132,137,132,135,137,135,140,138,139,139,144,143,146,147,139,140,135,134,130,129,127,122,123,123,127,127,133,131,134,136,136,147,145,143,136,136,141,146,141,140,137,146,148,148,135,130,130,135,137,137,141,137,139,143,157,170,163,153,148,145,147,147,134,134,136,144,135,131,123,118,118,118,114,115,109,109,109,119,116,117,102,92,90,97,98,98,100,102,106,102,108,109,114,127,126,119,117,122,122,128,132,144,140,143,138,136,140,142,140,136,136,142,129,130,130,128,119,124,126,116,109,110,97,95,99,93,91,86,84,88,90,96,104,95,107,101,111,116,119,119,119,127,125,135,139,145,145,145,153,153,153,159,159,156,156,167,162,162,171,176,171,172,168,163,166,168,168,170,170,167,0,0,0,0,0,0,0,0,0,0,0,0,0,0,0,0,0
0,0,0,0,0,0,0,0,0,0,0,0,0,0,0,0,0,0,0,0,0,0,0,0,0,0,0,0,0,0,0,0,0,0,0,0,0,0,0,0,0,0,0,0,0,0,0,0,0,0,0,0,0,0,0,0,0,0,0,0,0,0,0,0,0,0,0,0,0,0,0,0,0,0,0,0,0,0,0,0,0,0,0,0,0,0,0,0,0,0,0,0,0,0,160,160,0,0,0,0,155,0,154,152,152,151,153,149,149,143,138,135,133,131,130,131,131,124,124,124,121,117,119,116,117,113,115,117,116,116,121,121,123,128,127,130,130,134,137,134,138,138,133,133,133,133,138,136,134,136,140,138,140,142,140,144,139,144,143,144,147,146,144,143,140,136,130,130,126,126,123,123,127,130,136,139,139,139,139,153,152,146,137,139,140,136,138,136,141,145,144,141,133,130,133,135,139,141,137,141,139,147,152,168,166,157,151,143,146,139,134,139,131,133,133,132,126,123,116,117,119,118,113,117,121,126,129,118,111,98,93,95,99,99,97,101,103,107,106,115,122,118,119,117,120,127,127,134,142,152,156,147,143,135,142,142,140,147,140,138,136,131,128,122,125,115,120,118,116,110,106,103,95,93,86,86,83,84,95,104,106,103,107,109,111,114,118,115,119,125,128,137,143,146,148,154,157,166,157,151,159,159,169,168,163,167,169,171,174,172,170,170,161,170,167,170,171,167,0,0,0,0,0,0,0,0,0,0,0,0,0,0,0,0,0
0,0,0,0,0,0,0,0,0,0,0,0,0,0,0,0,0,0,0,0,0,0,0,0,0,0,0,0,0,0,0,0,0,0,0,0,0,0,0,0,0,0,0,0,0,0,0,0,0,0,0,0,0,0,0,0,0,0,0,0,0,0,0,0,0,0,0,0,0,0,0,0,0,0,0,0,0,0,0,0,0,0,0,0,0,0,0,0,0,0,0,0,0,0,160,160,158,0,0,157,155,154,155,154,151,153,151,146,149,146,138,138,133,128,127,127,127,124,127,119,124,117,115,115,115,115,113,117,118,123,118,123,121,127,129,130,134,139,135,139,143,135,140,135,137,137,138,135,136,140,141,141,141,142,141,147,141,144,143,147,146,144,147,143,143,134,134,133,126,122,125,127,130,130,136,139,141,139,148,152,144,137,139,135,136,136,141,136,140,137,135,136,132,137,135,135,139,137,140,140,141,141,142,154,154,157,151,143,139,139,137,134,137,137,133,130,127,127,117,119,115,116,118,116,122,129,124,124,117,106,100,99,99,101,106,101,107,101,109,108,120,112,119,126,125,130,138,142,152,164,160,163,150,146,145,149,149,143,141,143,144,141,128,122,118,118,120,116,118,118,109,106,99,95,93,86,88,95,95,106,106,101,103,112,120,119,118,120,122,128,127,135,140,140,145,149,162,163,155,158,157,165,171,167,164,157,167,167,167,172,170,167,170,164,170,170,167,0,0,0,0,0,0,0,0,0,0,0,0,0,0,0,0,0,0
0,0,0,0,0,0,0,0,0,0,0,0,0,0,0,0,0,0,0,0,0,0,0,0,0,0,0,0,0,0,0,0,0,0,0,0,0,0,0,0,0,0,0,0,0,0,0,0,0,0,0,0,0,0,0,0,0,0,0,0,0,0,0,0,0,0,0,0,0,0,0,0,0,0,0,0,0,0,0,0,0,0,0,0,0,0,0,0,0,0,0,0,0,0,160,160,156,160,155,157,152,154,152,154,151,153,148,150,146,149,138,137,134,132,134,124,127,121,120,122,118,117,115,114,117,114,120,120,120,120,123,122,127,129,130,132,134,139,140,144,143,143,138,141,138,141,141,151,141,141,141,141,144,141,142,146,146,148,147,146,147,150,147,145,142,136,131,130,132,129,132,130,126,134,134,136,139,140,143,146,141,134,125,134,132,141,141,137,137,135,133,130,130,130,138,135,139,143,137,136,136,140,145,148,149,148,146,141,145,143,141,137,137,134,130,127,129,123,119,122,122,122,118,116,117,122,115,117,111,111,105,100,97,103,109,107,109,104,109,111,110,118,124,126,134,132,138,143,149,156,156,156,160,155,152,156,145,152,141,145,155,153,138,126,119,113,118,117,116,118,112,110,100,106,96,90,86,95,102,100,95,99,111,116,126,122,118,120,122,134,131,135,138,138,143,153,154,155,155,157,158,163,167,162,161,162,163,166,167,169,167,172,170,172,168,170,0,0,0,0,0,0,0,0,0,0,0,0,0,0,0,0,0,0,0
0,0,0,0,0,0,0,0,0,0,0,0,0,0,0,0,0,0,0,0,0,0,0,0,0,0,0,0,0,0,0,0,0,0,0,0,0,0,0,0,0,0,0,0,0,0,0,0,0,0,0,0,0,0,0,0,0,0,0,0,0,0,0,0,0,0,0,0,0,0,0,0,0,0,0,0,0,0,0,0,0,0,0,0,0,0,0,0,0,0,0,0,0,160,160,154,148,151,157,155,154,157,152,153,151,153,150,150,147,143,143,138,135,135,127,127,123,117,120,120,115,112,113,112,114,123,122,122,126,124,124,127,122,130,126,134,139,139,143,145,139,147,143,143,143,151,151,146,146,146,149,146,148,143,141,144,146,147,147,147,146,147,147,145,143,139,137,138,135,132,132,128,129,131,131,129,134,138,141,143,148,135,134,128,136,136,139,137,137,135,135,130,132,130,132,137,137,137,141,141,140,140,141,151,152,155,146,143,141,143,143,141,143,136,132,130,129,126,123,122,122,123,123,115,118,114,106,106,115,109,100,104,103,106,109,111,111,111,111,111,118,119,132,126,138,130,136,139,145,149,154,155,152,162,154,154,156,152,155,149,165,166,143,132,130,126,118,115,118,120,110,105,104,105,98,91,86,86,94,99,104,99,110,124,131,128,120,120,120,128,134,132,138,138,143,150,153,160,157,157,160,160,163,166,165,163,166,164,160,167,167,163,0,173,169,0,0,0,0,0,0,0,0,0,0,0,0,0,0,0,0,0,0,0,0
0,0,0,0,0,0,0,0,0,0,0,0,0,0,0,0,0,0,0,0,0,0,0,0,0,0,0,0,0,0,0,0,0,0,0,0,0,0,0,0,0,0,0,0,0,0,0,0,0,0,0,0,0,0,0,0,0,0,0,0,0,0,0,0,0,0,0,0,0,0,0,0,0,0,0,0,0,0,0,0,0,0,0,0,0,0,0,0,0,0,162,162,160,160,154,156,151,156,153,148,154,152,154,152,153,150,150,150,150,143,143,135,132,132,128,127,123,120,117,112,112,109,112,112,114,120,122,124,122,124,127,127,127,131,133,131,139,134,143,146,151,150,143,143,148,148,148,146,146,146,146,148,148,148,146,146,147,150,147,147,144,147,152,152,146,142,134,138,135,133,133,133,129,131,134,134,138,132,136,146,148,150,133,131,128,132,136,132,136,133,130,130,126,136,133,135,132,138,137,141,140,143,151,157,158,155,146,140,141,143,143,139,138,139,143,140,132,132,126,128,125,127,123,122,114,118,114,105,108,108,104,104,109,103,111,107,122,126,120,124,128,135,128,134,136,138,148,141,147,150,150,148,152,150,154,159,162,156,152,167,169,166,153,143,136,132,120,121,126,120,112,106,118,112,101,93,86,83,90,95,102,101,112,128,132,126,111,120,120,128,128,133,138,138,143,151,159,162,161,157,160,160,163,163,168,159,0,0,0,0,0,167,0,0,0,0,0,0,0,0,0,0,0,0,0,0,0,0,0,0,0,0,0,0,0
0,0,0,0,0,0,0,0,0,0,0,0,0,0,0,0,0,0,0,0,0,0,0,0,0,0,0,0,0,0,0,0,0,0,0,0,0,0,0,0,0,0,0,0,0,0,0,0,0,0,0,0,0,0,0,0,0,0,0,0,0,0,0,0,0,0,0,0,0,0,0,0,0,0,0,0,0,0,0,0,0,0,0,0,0,0,0,0,0,162,162,160,162,156,156,151,148,146,153,150,151,154,151,153,153,153,153,153,150,143,141,140,135,130,127,121,120,120,114,112,111,104,112,114,114,120,120,122,126,126,126,131,133,131,136,138,136,142,145,145,153,148,147,147,147,149,144,147,143,150,152,150,150,150,146,149,150,147,150,150,147,147,149,153,153,139,139,134,141,133,133,128,131,134,136,136,132,140,140,144,154,145,139,130,125,130,132,130,133,133,130,130,126,129,132,130,137,138,146,137,143,148,154,160,154,145,141,141,141,143,142,144,147,144,149,146,139,132,126,130,125,133,123,120,123,113,114,103,103,106,108,104,109,109,109,116,122,135,133,132,146,140,136,132,132,150,149,145,149,154,150,152,152,156,154,162,163,156,158,165,167,156,145,150,145,146,121,123,124,126,120,112,120,121,103,93,90,86,86,95,104,101,101,115,120,117,114,118,120,122,130,132,137,138,143,152,163,163,160,157,159,163,159,166,168,159,160,160,158,163,161,165,0,0,0,0,0,0,0,0,0,0,0,0,0,0,0,0,0,0,0,0,0,0,0
0,0,0,0,0,0,0,0,0,0,0,0,0,0,0,0,0,0,0,0,0,0,0,0,0,0,0,0,0,0,0,0,0,0,0,0,0,0,0,0,0,0,0,0,0,0,0,0,0,0,0,0,0,0,0,0,0,0,0,0,0,0,0,0,0,0,0,0,0,0,0,0,0,0,0,0,0,0,0,0,0,0,0,0,0,0,167,169,162,164,156,158,154,156,156,148,148,146,145,146,150,148,153,151,150,146,153,150,152,143,141,138,132,132,125,125,120,117,120,112,106,112,110,116,120,124,122,122,123,129,129,136,134,136,136,138,139,143,145,150,148,146,143,145,147,144,147,149,155,147,152,152,155,148,150,150,150,150,150,149,149,147,147,150,151,146,139,139,134,134,131,130,134,131,138,134,136,134,141,142,144,137,133,132,125,127,132,127,137,128,130,136,130,134,132,132,135,137,143,141,143,150,152,152,149,146,141,141,141,143,142,143,147,152,153,155,143,132,132,126,128,119,125,120,115,119,111,111,106,111,104,114,111,111,114,119,126,135,140,147,150,148,132,132,140,150,148,142,147,152,152,158,158,160,162,165,166,160,159,154,157,151,149,149,161,148,130,124,126,126,120,112,115,118,105,95,91,92,93,96,102,94,98,106,112,116,116,120,120,124,130,131,135,135,144,149,158,169,162,159,162,161,159,159,162,159,156,155,158,161,156,161,0,0,0,0,0,0,0,0,0,0,0,0,0,0,0,0,0,0,0,0,0,0,0
0,0,0,0,0,0,0,0,0,0,0,0,0,0,0,0,0,0,0,0,0,0,0,0,0,0,0,0,0,0,0,0,0,0,0,0,0,0,0,0,0,0,0,0,0,0,0,0,0,0,0,0,0,0,0,0,0,0,0,0,0,0,0,0,0,0,0,0,0,0,0,0,0,0,0,0,0,0,0,0,0,0,0,0,0,0,167,166,164,164,160,158,156,156,153,151,148,145,145,145,150,145,149,147,149,144,146,150,143,148,143,138,134,130,132,126,120,117,115,106,108,113,116,118,123,118,119,123,129,131,134,129,137,136,136,143,146,148,148,148,150,145,143,145,146,148,149,149,152,147,152,155,155,152,150,150,147,147,150,147,152,152,150,148,147,138,142,139,136,134,128,129,134,129,137,141,139,138,137,139,139,133,133,127,127,127,131,128,136,133,134,129,133,130,133,135,140,144,142,145,145,145,143,149,145,146,141,141,145,143,145,146,147,152,153,149,140,138,130,131,128,125,122,122,117,114,116,112,104,109,109,109,114,114,114,123,125,129,139,148,143,143,144,142,143,149,144,150,149,147,159,161,168,165,165,173,165,158,155,159,152,153,158,161,153,149,129,126,124,120,120,110,111,117,99,93,95,92,95,102,95,99,99,103,112,111,113,119,124,127,124,128,137,137,144,145,154,158,157,157,164,162,157,159,154,155,151,155,153,153,158,0,0,0,0,0,0,0,0,0,0,0,0,0,0,0,0,0,0,0,0,0,0,0,0
0,0,0,0,0,0,0,0,0,0,0,0,0,0,0,0,0,0,0,0,0,0,0,0,0,0,0,0,0,0,0,0,0,0,0,0,0,0,0,0,0,0,0,0,0,0,0,0,0,0,0,0,0,0,0,0,0,0,0,0,0,0,0,0,0,0,0,0,0,0,0,0,0,0,0,0,0,0,0,0,0,0,0,0,0,0,169,164,164,164,160,160,156,156,155,150,148,147,142,148,145,144,144,141,144,146,143,139,143,141,143,141,137,139,135,125,119,119,117,108,113,115,120,120,121,122,126,125,129,126,134,135,141,138,141,146,151,157,153,148,147,148,143,146,150,151,151,148,152,152,149,155,155,155,147,147,150,147,147,147,149,152,153,148,148,145,143,141,142,137,132,126,131,131,137,144,144,141,138,137,139,135,132,125,130,128,126,132,130,136,130,134,130,135,135,138,146,144,152,150,148,148,143,145,143,140,143,143,143,145,142,146,151,152,153,143,140,133,135,131,125,131,122,120,119,114,114,112,106,109,109,113,114,120,118,127,126,123,137,140,140,142,145,145,149,149,153,145,155,155,165,167,172,167,178,174,168,161,155,152,154,155,162,157,141,146,135,130,126,120,116,111,110,106,103,92,88,92,99,101,102,102,97,103,111,112,119,119,123,125,127,135,133,139,146,157,151,161,160,157,163,160,156,156,154,154,153,152,149,155,156,0,0,0,0,0,0,0,0,0,0,0,0,0,0,0,0,0,0,0,0,0,0,0,0
0,0,0,0,0,0,0,0,0,0,0,0,0,0,0,0,0,0,0,0,0,0,0,0,0,0,0,0,0,0,0,0,0,0,0,0,0,0,0,0,0,0,0,0,0,0,0,0,0,0,0,0,0,0,0,0,0,0,0,0,0,0,0,0,0,0,0,0,0,0,0,0,0,0,0,0,0,0,0,0,0,0,0,0,0,0,0,0,0,0,0,0,160,162,153,153,150,142,147,145,142,145,144,144,141,139,138,138,137,138,138,134,133,137,128,120,119,122,118,111,120,122,120,120,127,127,127,126,129,134,134,138,138,138,143,143,148,153,152,148,152,150,145,151,153,160,158,156,160,152,152,155,152,152,150,149,149,149,152,152,148,150,153,151,148,148,145,141,144,139,134,130,128,127,131,142,146,141,140,136,133,132,129,127,128,131,126,127,136,132,134,133,135,136,141,148,150,154,150,152,150,146,143,143,143,146,140,143,145,145,145,148,153,157,150,148,139,139,135,134,129,126,126,122,118,118,109,116,112,109,116,116,120,115,123,131,137,128,131,132,139,138,149,156,150,149,150,156,149,164,164,171,174,174,174,174,178,160,150,160,160,155,149,139,139,132,144,138,120,124,122,122,105,103,102,94,95,103,104,111,102,106,103,106,106,114,109,121,123,125,127,135,133,140,157,159,170,153,154,156,157,154,151,154,150,150,154,149,155,149,152,149,0,0,0,0,0,0,0,0,0,0,0,0,0,0,0,0,0,0,0,0,0,0,0
0,0,0,0,0,0,0,0,0,0,0,0,0,0,0,0,0,0,0,0,0,0,0,0,0,0,0,0,0,0,0,0,0,0,0,0,0,0,0,0,0,0,0,0,0,0,0,0,0,0,0,0,0,0,0,0,0,0,0,0,0,0,0,0,0,0,0,0,0,0,0,0,0,0,0,0,0,0,0,0,0,0,0,0,0,0,0,0,0,0,0,0,160,160,162,153,148,147,148,145,149,144,146,141,141,141,138,137,138,132,133,132,130,126,122,114,119,117,114,119,129,131,120,123,125,132,131,131,127,132,136,134,140,138,140,143,146,153,146,146,152,152,157,159,161,161,162,158,162,158,152,154,160,157,152,152,149,150,153,153,155,151,150,148,153,148,151,143,144,142,139,133,130,131,134,144,144,141,136,138,134,136,125,131,124,127,129,129,134,133,143,139,141,139,143,144,156,150,150,152,146,145,143,140,143,141,141,143,143,148,143,150,156,160,148,145,139,141,132,135,131,127,126,120,120,120,113,112,113,116,117,117,123,123,129,134,134,133,135,137,139,144,156,159,154,149,155,159,157,170,176,178,178,174,174,169,169,159,152,155,158,147,149,139,142,140,146,145,128,127,131,123,120,119,113,103,103,115,108,113,97,104,106,110,107,112,114,116,121,125,130,130,136,142,153,163,161,160,157,147,149,148,152,145,150,151,148,148,144,149,149,149,0,0,0,0,0,0,0,0,0,0,0,0,0,0,0,0,0,0,0,0,0,0,0
0,0,0,0,0,0,0,0,0,0,0,0,0,0,0,0,0,0,0,0,0,0,0,0,0,0,0,0,0,0,0,0,0,0,0,0,0,0,0,0,0,0,0,0,0,0,0,0,0,0,0,0,0,0,0,0,0,0,0,0,0,0,0,0,0,0,0,0,0,0,0,0,0,0,0,0,0,0,0,0,0,0,0,0,0,0,0,0,0,0,0,0,0,157,153,155,147,155,152,150,149,149,146,146,141,138,138,135,132,135,127,128,125,127,125,122,117,118,118,133,135,129,120,120,123,127,128,126,129,131,137,143,140,140,140,143,143,151,146,148,148,155,159,166,166,159,153,155,156,156,152,160,163,160,154,150,150,150,150,156,155,158,157,158,153,150,150,141,144,141,139,128,134,129,139,144,150,140,132,138,136,132,137,128,132,126,134,139,133,143,141,147,155,146,143,145,145,145,148,146,145,141,143,140,143,143,143,141,143,150,153,151,156,152,152,145,147,141,141,135,132,128,126,120,120,120,120,116,117,120,126,132,132,131,134,131,135,135,135,136,141,147,155,157,160,152,159,159,163,165,180,178,178,178,174,169,173,158,165,158,155,149,149,143,143,142,145,152,138,127,125,127,116,115,122,119,116,117,117,122,110,108,114,108,109,111,112,114,120,129,134,140,136,140,142,152,155,153,154,148,144,147,0,149,149,150,146,142,144,149,145,0,0,0,0,0,0,0,0,0,0,0,0,0,0,0,0,0,0,0,0,0,0,0,0
0,0,0,0,0,0,0,0,0,0,0,0,0,0,0,0,0,0,0,0,0,0,0,0,0,0,0,0,0,0,0,0,0,0,0,0,0,0,0,0,0,0,0,0,0,0,0,0,0,0,0,0,0,0,0,0,0,0,0,0,0,0,0,0,0,0,0,0,0,0,0,0,0,0,0,0,0,0,0,0,0,0,0,0,0,0,0,0,0,0,0,0,0,160,157,153,148,153,152,152,149,149,146,146,146,138,138,141,132,138,130,129,127,124,122,114,123,117,123,131,129,125,118,116,123,127,125,128,132,137,141,139,141,141,143,143,145,151,149,148,148,155,157,160,161,152,151,148,156,156,155,158,162,158,158,155,151,151,150,155,157,159,163,163,161,155,147,141,141,137,133,134,137,131,139,144,148,141,140,136,140,136,137,131,131,134,134,142,138,139,144,152,150,146,145,144,146,150,146,145,141,143,143,140,141,143,141,143,143,153,153,155,148,152,149,144,147,139,135,137,134,132,128,120,123,120,113,121,124,128,136,138,135,129,134,131,135,133,135,145,146,154,158,164,164,158,164,175,173,171,182,178,178,174,174,169,173,169,170,162,162,154,154,154,157,151,154,150,148,137,130,132,128,119,124,128,125,125,125,129,120,123,117,121,111,115,121,124,131,129,134,140,136,133,134,143,136,141,144,147,143,143,152,148,151,148,144,146,146,144,0,0,0,0,0,0,0,0,0,0,0,0,0,0,0,0,0,0,0,0,0,0,0,0,0
0,0,0,0,0,0,0,0,0,0,0,0,0,0,0,0,0,0,0,0,0,0,0,0,0,0,0,0,0,0,0,0,0,0,0,0,0,0,0,0,0,0,0,0,0,0,0,0,0,0,0,0,0,0,0,0,0,0,0,0,0,0,0,0,0,0,0,0,0,0,0,0,0,0,0,0,0,0,0,0,0,0,0,0,0,0,0,0,0,0,0,0,0,157,155,153,153,156,156,155,153,150,153,152,143,143,138,138,138,138,135,134,130,127,124,122,115,120,120,133,123,113,116,122,125,132,126,133,128,134,138,141,143,141,148,143,145,149,149,145,151,154,155,155,151,150,148,156,159,162,160,160,162,164,166,159,156,155,153,152,153,159,163,163,161,153,146,142,134,139,139,137,134,142,141,146,150,149,141,140,134,137,134,132,131,132,137,136,135,140,138,150,152,148,147,146,142,144,143,141,141,143,143,140,143,141,141,147,147,143,150,150,150,150,151,147,144,144,143,137,132,128,131,120,122,117,117,115,117,124,130,132,134,132,134,132,136,142,142,149,154,158,162,170,168,179,185,182,182,180,178,182,178,178,174,174,173,166,170,162,158,158,158,157,153,157,154,150,146,146,136,140,132,132,128,125,125,125,117,125,129,127,126,122,114,127,125,136,138,133,127,134,130,130,132,136,141,139,146,139,141,149,152,0,146,139,134,139,137,0,0,0,0,0,0,0,0,0,0,0,0,0,0,0,0,0,0,0,0,0,0,0,0,0,0
0,0,0,0,0,0,0,0,0,0,0,0,0,0,0,0,0,0,0,0,0,0,0,0,0,0,0,0,0,0,0,0,0,0,0,0,0,0,0,0,0,0,0,0,0,0,0,0,0,0,0,0,0,0,0,0,0,0,0,0,0,0,0,0,0,0,0,0,0,0,0,0,0,0,0,0,0,0,0,0,0,0,0,0,0,0,0,0,0,0,0,160,160,157,159,145,153,152,156,153,153,153,150,150,143,141,143,143,143,143,134,132,130,124,124,122,120,123,123,123,118,122,120,122,127,122,130,126,131,130,144,137,141,141,143,141,139,149,147,149,149,157,155,151,151,153,155,152,158,159,162,160,166,169,178,163,157,159,157,155,157,157,160,153,151,151,147,142,147,148,142,139,139,141,145,149,158,160,152,144,136,132,134,134,134,130,134,130,135,138,140,144,145,152,148,150,152,148,141,141,143,143,140,141,141,143,147,150,148,148,143,146,148,151,153,147,148,150,146,144,136,128,129,126,123,120,120,118,123,124,133,139,134,130,128,132,134,144,143,151,160,162,164,172,186,185,182,182,182,182,178,182,178,178,174,174,169,173,166,162,162,158,153,157,153,157,150,150,146,140,146,132,132,132,128,125,121,125,125,125,125,132,132,132,135,126,142,145,140,132,130,128,126,129,133,139,148,146,147,0,146,0,0,0,0,140,0,0,0,0,0,0,0,0,0,0,0,0,0,0,0,0,0,0,0,0,0,0,0,0,0,0,0,0,0
0,0,0,0,0,0,0,0,0,0,0,0,0,0,0,0,0,0,0,0,0,0,0,0,0,0,0,0,0,0,0,0,0,0,0,0,0,0,0,0,0,0,0,0,0,0,0,0,0,0,0,0,0,0,0,0,0,0,0,0,0,0,0,0,0,0,0,0,0,0,0,0,0,0,0,0,0,0,0,0,0,0,0,0,0,0,0,0,0,160,160,157,157,157,155,152,155,152,153,155,153,150,146,143,146,143,146,140,140,140,139,134,126,130,124,0,122,123,123,118,122,120,122,122,123,131,123,123,126,130,136,134,137,144,134,139,139,141,144,141,145,148,154,151,151,153,155,150,148,157,160,159,168,167,167,162,155,155,155,151,157,153,157,151,149,155,145,139,144,140,139,139,136,141,143,148,149,154,152,141,129,139,134,131,129,129,134,130,130,141,142,142,144,142,156,159,154,150,145,143,143,140,140,140,143,143,148,150,147,143,146,139,145,148,147,147,141,153,153,148,139,131,131,123,125,125,125,125,118,124,138,136,134,126,129,129,134,137,145,148,154,160,172,175,185,185,185,185,182,182,182,178,178,174,174,174,169,170,166,162,158,158,153,157,150,154,150,146,146,140,136,136,132,128,125,125,129,121,121,129,129,129,134,134,141,145,142,142,144,132,126,123,130,128,126,131,138,141,138,0,0,0,0,0,0,0,0,0,0,0,0,0,0,0,0,0,0,0,0,0,0,0,0,0,0,0,0,0,0,0,0,0,0,0,0
0,0,0,0,0,0,0,0,0,0,0,0,0,0,0,0,0,0,0,0,0,0,0,0,0,0,0,0,0,0,0,0,0,0,0,0,0,0,0,0,0,0,0,0,0,0,0,0,0,0,0,0,0,0,0,0,0,0,0,0,0,0,0,0,0,0,0,0,0,0,0,0,0,0,0,0,0,0,0,0,0,0,0,0,0,0,0,0,160,160,158,157,160,159,156,152,152,152,156,153,152,150,146,143,146,143,140,144,147,141,134,137,127,126,124,122,0,0,122,122,126,128,128,131,128,124,123,124,126,129,134,132,137,137,142,136,134,136,141,144,145,147,148,142,151,153,148,152,150,152,155,159,162,161,159,157,154,156,153,153,153,153,148,153,152,147,145,144,136,140,139,136,136,140,140,143,143,143,141,139,139,126,131,131,124,128,126,133,137,137,141,148,144,148,154,166,163,158,146,140,140,143,143,146,143,146,147,145,145,143,141,141,141,144,144,141,146,150,156,157,148,132,123,129,126,136,132,130,122,128,128,134,134,130,133,129,138,141,144,146,154,166,172,179,187,185,185,185,182,178,182,174,178,174,174,169,169,166,170,162,158,158,157,153,154,146,150,142,146,136,140,132,132,128,125,125,129,125,132,129,129,134,134,139,137,143,145,135,134,129,124,122,125,123,131,131,135,131,0,0,147,0,0,0,0,0,0,0,0,0,0,0,0,0,0,0,0,0,0,0,0,0,0,0,0,0,0,0,0,0,0,0,0,0,0
0,0,0,0,0,0,0,0,0,0,0,0,0,0,0,0,0,0,0,0,0,0,0,0,0,0,0,0,0,0,0,0,0,0,0,0,0,0,0,0,0,0,0,0,0,0,0,0,0,0,0,0,0,0,0,0,0,0,0,0,0,0,0,0,0,0,0,0,0,0,0,0,0,0,0,0,0,0,0,0,0,0,0,0,0,0,0,0,0,158,160,157,0,159,157,158,153,152,155,156,153,152,150,143,143,150,144,0,0,0,0,0,0,0,0,0,0,0,128,125,124,126,131,131,127,128,126,126,126,132,136,129,139,136,136,135,137,139,136,139,143,142,141,145,147,155,153,157,160,157,155,159,163,157,150,156,154,154,151,148,153,150,150,154,154,151,145,148,145,148,143,147,151,151,145,140,138,138,140,134,134,129,132,124,128,0,128,130,135,138,147,152,144,152,154,160,159,158,145,140,143,143,143,143,146,143,141,143,141,143,147,139,138,144,141,141,139,140,144,148,143,135,122,129,134,136,144,136,132,126,126,132,134,140,135,150,143,143,146,146,159,169,176,181,185,185,182,182,178,178,178,174,174,169,169,169,169,166,162,158,158,153,153,154,146,150,142,146,136,140,136,132,128,128,125,132,128,132,129,132,136,132,139,139,139,138,138,132,125,124,123,128,120,125,127,127,0,0,0,128,134,137,0,0,0,0,0,0,0,0,0,0,0,0,0,0,0,0,0,0,0,0,0,0,0,0,0,0,0,0,0,0,0,0,0
0,0,0,0,0,0,0,0,0,0,0,0,0,0,0,0,0,0,0,0,0,0,0,0,0,0,0,0,0,0,0,0,0,0,0,0,0,0,0,0,0,0,0,0,0,0,0,0,0,0,0,0,0,0,0,0,0,0,0,0,0,0,0,0,0,0,0,0,0,0,0,0,0,0,0,0,0,0,0,0,0,0,0,0,0,0,0,0,0,0,158,0,0,0,0,0,0,0,155,155,152,150,150,146,143,150,144,0,0,0,0,0,0,0,0,0,0,0,125,126,131,131,136,131,133,136,130,129,132,129,125,134,138,143,135,139,132,134,137,141,141,140,140,140,147,156,164,167,167,164,157,155,152,152,151,155,159,150,152,149,149,148,154,153,154,148,152,149,155,155,162,159,158,154,141,138,136,138,136,134,134,132,128,0,128,130,136,133,138,143,144,155,150,150,152,152,154,152,145,143,143,146,146,146,143,143,141,143,143,146,146,142,142,139,139,141,135,137,135,139,133,131,129,135,136,140,146,136,137,126,129,139,142,139,145,150,154,156,150,152,169,170,173,185,182,185,182,185,182,178,174,173,174,169,169,166,166,162,162,158,158,153,153,150,146,146,142,136,142,136,132,136,128,128,128,132,132,132,132,136,136,134,143,139,139,133,130,128,128,120,124,125,126,120,123,125,125,123,119,121,125,0,0,0,0,0,0,0,0,0,0,0,0,0,0,0,0,0,0,0,0,0,0,0,0,0,0,0,0,0,0,0,0,0,0
0,0,0,0,0,0,0,0,0,0,0,0,0,0,0,0,0,0,0,0,0,0,0,0,0,0,0,0,0,0,0,0,0,0,0,0,0,0,0,0,0,0,0,0,0,0,0,0,0,0,0,0,0,0,0,0,0,0,0,0,0,0,0,0,0,0,0,0,0,0,0,0,0,0,0,0,0,0,0,0,0,0,0,0,0,0,0,0,0,0,0,0,157,0,0,159,0,153,152,152,155,152,150,143,143,150,150,0,0,0,0,0,0,0,0,0,0,0,0,129,136,134,136,137,142,135,138,132,135,135,133,131,134,132,132,131,132,134,136,134,136,136,136,140,148,167,168,172,175,163,152,154,154,152,147,146,156,152,148,146,148,148,153,154,154,152,159,168,164,166,167,165,152,148,140,138,138,136,138,134,131,131,124,137,133,140,138,141,143,154,162,156,156,150,152,146,145,146,145,143,145,141,139,139,139,136,136,142,145,151,148,139,142,137,137,133,136,132,134,128,125,129,129,135,135,143,143,139,137,129,132,138,135,143,145,150,150,155,156,158,177,182,177,182,182,182,182,182,178,178,178,174,174,169,169,169,166,162,162,158,158,153,150,150,146,142,146,136,136,132,132,128,132,128,132,132,140,132,136,132,143,140,140,140,143,143,144,135,129,124,121,121,128,127,120,118,118,118,121,120,119,115,0,0,0,0,0,0,0,0,0,0,0,0,0,0,0,0,0,0,0,0,0,0,0,0,0,0,0,0,0,0,0,0,0
0,0,0,0,0,0,0,0,0,0,0,0,0,0,0,0,0,0,0,0,0,0,0,0,0,0,0,0,0,0,0,0,0,0,0,0,0,0,0,0,0,0,0,0,0,0,0,0,0,0,0,0,0,0,0,0,0,0,0,0,0,0,0,0,0,0,0,0,0,0,0,0,0,0,0,0,0,0,0,0,0,0,0,0,0,0,0,0,0,0,0,0,0,0,157,156,153,153,152,152,150,155,146,150,147,146,0,0,0,0,0,0,0,0,0,0,0,0,0,134,136,136,141,0,144,146,138,139,139,139,135,133,139,139,131,134,129,131,132,130,132,133,135,142,154,165,165,168,161,151,148,152,154,150,148,150,147,150,147,146,155,151,154,155,162,163,163,178,173,168,178,165,148,145,140,138,140,138,140,136,136,0,0,141,150,150,143,141,150,156,169,170,155,159,154,148,143,145,143,145,144,139,139,139,139,134,139,147,156,150,144,136,137,134,133,133,135,128,130,132,135,135,135,142,142,140,143,143,135,130,132,129,135,143,150,154,152,159,158,166,178,182,182,182,182,182,182,182,178,182,178,178,174,174,169,169,166,162,166,158,153,153,150,146,146,142,142,136,136,132,128,132,132,132,136,136,136,136,136,136,146,140,146,148,148,143,148,145,135,125,125,119,120,124,118,118,116,115,116,119,116,0,0,0,0,0,0,0,0,0,0,0,0,0,0,0,0,0,0,0,0,0,0,0,0,0,0,0,0,0,0,0,0,0,0
0,0,0,0,0,0,0,0,0,0,0,0,0,0,0,0,0,0,0,0,0,0,0,0,0,0,0,0,0,0,0,0,0,0,0,0,0,0,0,0,0,0,0,0,0,0,0,0,0,0,0,0,0,0,0,0,0,0,0,0,0,0,0,0,0,0,0,0,0,0,0,0,0,0,0,0,0,0,0,0,0,0,0,0,0,0,0,0,0,0,0,0,0,0,157,154,154,155,154,155,155,150,150,150,150,0,0,0,0,0,0,0,0,0,0,0,0,0,0,0,0,0,0,0,0,144,140,140,144,139,139,145,144,141,132,134,128,134,127,132,126,130,132,139,146,149,159,157,151,145,144,146,150,147,144,147,144,146,146,153,153,151,149,156,159,155,163,173,173,170,173,157,141,141,137,141,137,141,133,144,0,0,133,149,161,165,150,147,152,154,172,178,172,168,161,145,143,143,143,143,139,136,134,132,144,137,145,154,154,153,144,131,139,134,130,130,135,135,132,137,141,144,149,153,152,147,143,148,132,134,132,134,137,132,141,148,148,150,158,165,173,178,182,178,182,182,178,182,182,178,178,182,178,174,174,169,166,166,162,158,158,153,153,150,146,146,142,136,136,136,132,132,136,136,136,136,136,142,136,146,136,146,146,146,146,148,148,148,142,138,128,127,127,127,122,112,116,114,121,121,115,0,0,0,0,0,0,0,0,0,0,0,0,0,0,0,0,0,0,0,0,0,0,0,0,0,0,0,0,0,0,0,0,0,0
0,0,0,0,0,0,0,0,0,0,0,0,0,0,0,0,0,0,0,0,0,0,0,0,0,0,0,0,0,0,0,0,0,0,0,0,0,0,0,0,0,0,0,0,0,0,0,0,0,0,0,0,0,0,0,0,0,0,0,0,0,0,0,0,0,0,0,0,0,0,0,0,0,0,0,0,0,0,0,0,0,0,0,0,0,0,0,0,0,0,0,0,0,0,157,157,154,154,154,154,0,0,0,0,0,0,0,0,0,0,0,0,0,0,0,0,0,0,0,0,0,0,0,0,0,0,0,142,141,143,154,149,152,145,139,132,132,136,127,128,128,128,132,136,138,142,152,147,150,148,146,142,145,147,143,142,144,148,152,152,151,153,147,159,149,158,159,169,166,170,167,152,146,135,143,139,145,139,0,0,0,143,142,143,150,150,148,145,152,152,163,172,168,168,163,149,143,143,139,136,139,131,137,140,143,140,145,147,143,143,136,134,131,131,130,130,133,131,136,136,142,152,158,159,155,154,154,144,141,137,141,132,141,137,145,145,147,150,156,159,165,178,178,182,178,182,182,178,182,178,182,178,174,174,169,169,166,166,162,158,158,153,157,150,146,146,142,136,136,132,140,136,136,142,136,142,142,142,136,142,146,146,146,150,153,153,148,143,142,132,132,128,133,140,136,120,114,112,114,112,109,0,0,0,0,0,0,0,0,0,0,0,0,0,0,0,0,0,0,0,0,0,0,0,0,0,0,0,0,0,0,0,0,0,0
0,0,0,0,0,0,0,0,0,0,0,0,0,0,0,0,0,0,0,0,0,0,0,0,0,0,0,0,0,0,0,0,0,0,0,0,0,0,0,0,0,0,0,0,0,0,0,0,0,0,0,0,0,0,0,0,0,0,0,0,0,0,0,0,0,0,0,0,0,0,0,0,0,0,0,0,0,0,0,0,0,0,0,0,0,0,0,0,0,0,0,0,0,0,0,0,157,154,154,0,0,0,0,0,0,0,0,0,0,0,0,0,0,0,0,0,0,0,0,0,0,0,140,0,0,143,141,146,145,148,150,155,149,149,135,132,140,128,122,125,128,124,132,132,138,140,146,143,145,143,145,143,144,142,144,142,138,149,149,152,147,155,154,150,157,150,166,166,168,158,157,141,144,141,141,141,144,140,0,0,159,147,144,139,139,141,144,148,145,156,168,166,160,152,154,148,140,139,136,134,131,132,142,153,145,137,130,134,135,136,136,135,128,134,134,134,134,134,136,136,144,145,145,151,159,154,148,150,150,144,144,141,146,148,147,145,147,150,154,158,165,173,174,178,178,178,182,178,182,178,174,174,174,174,169,173,166,162,162,158,158,153,154,146,150,142,146,136,140,136,136,142,142,136,146,142,142,142,146,150,146,150,150,150,154,150,149,144,140,141,132,134,128,138,133,128,123,124,116,113,105,105,0,0,0,0,0,0,0,0,0,0,0,0,0,0,0,0,0,0,0,0,0,0,0,0,0,0,0,0,0,0,0,0,0
0,0,0,0,0,0,0,0,0,0,0,0,0,0,0,0,0,0,0,0,0,0,0,0,0,0,0,0,0,0,0,0,0,0,0,0,0,0,0,0,0,0,0,0,0,0,0,0,0,0,0,0,0,0,0,0,0,0,0,0,0,0,0,0,0,0,0,0,0,0,0,0,0,0,0,0,0,0,0,0,0,0,0,0,0,0,0,0,0,0,0,0,0,0,0,0,0,0,0,0,0,0,0,0,0,0,0,0,0,0,0,0,0,0,0,0,0,0,0,0,141,140,140,143,140,141,143,145,144,152,150,150,0,145,0,0,134,132,128,122,124,130,130,144,140,139,142,138,142,140,142,142,143,148,136,136,136,148,146,147,153,151,151,149,147,153,166,166,158,147,150,143,140,140,144,147,146,0,0,0,157,149,146,138,136,141,140,148,145,152,163,166,158,152,150,145,140,137,137,131,131,137,141,146,136,134,130,127,133,131,133,139,143,140,136,131,134,134,134,144,144,144,147,150,145,148,148,154,160,156,154,158,154,158,152,154,154,158,154,156,163,168,174,174,178,182,174,178,178,174,178,174,169,174,173,166,166,162,158,158,153,150,150,150,146,146,136,140,142,136,142,142,142,150,142,150,146,146,146,146,146,150,150,154,154,157,149,151,140,142,138,136,138,134,135,131,137,140,133,128,123,0,0,0,0,0,0,0,0,0,0,0,0,0,0,0,0,0,0,0,0,0,0,0,0,0,0,0,0,0,0,0,0,0,0
0,0,0,0,0,0,0,0,0,0,0,0,0,0,0,0,0,0,0,0,0,0,0,0,0,0,0,0,0,0,0,0,0,0,0,0,0,0,0,0,0,0,0,0,0,0,0,0,0,0,0,0,0,0,0,0,0,0,0,0,0,0,0,0,0,0,0,0,0,0,0,0,0,0,0,0,0,0,0,0,0,0,0,0,0,0,0,0,0,0,0,0,0,0,0,0,0,0,0,0,0,0,0,0,0,0,0,0,0,0,0,0,0,0,0,0,0,0,0,0,143,138,143,140,143,141,143,145,145,150,152,0,0,0,0,0,0,134,130,127,125,127,136,139,136,130,130,134,136,140,142,136,148,142,142,138,136,140,143,146,143,150,145,145,151,153,158,158,145,141,142,141,138,144,150,154,154,0,0,143,141,145,139,135,136,141,144,140,143,148,152,152,148,146,146,141,139,144,139,133,132,130,137,129,136,133,134,132,133,131,139,143,150,146,137,136,139,139,139,141,144,144,139,149,145,147,147,154,163,162,159,160,156,152,159,162,156,154,152,156,159,165,176,178,178,174,178,174,174,178,169,174,169,173,166,170,166,162,158,153,153,153,154,146,146,142,140,142,142,142,142,146,142,150,146,154,146,146,146,146,150,154,153,159,154,157,155,153,149,147,147,145,147,140,136,134,131,143,134,134,0,0,0,0,0,0,0,0,0,0,0,0,0,0,0,0,0,0,0,0,0,0,0,0,0,0,0,0,0,0,0,0,0,0,0
0,0,0,0,0,0,0,0,0,0,0,0,0,0,0,0,0,0,0,0,0,0,0,0,0,0,0,0,0,0,0,0,0,0,0,0,0,0,0,0,0,0,0,0,0,0,0,0,0,0,0,0,0,0,0,0,0,0,0,0,0,0,0,0,0,0,0,0,0,0,0,0,0,0,0,0,0,0,0,0,0,0,0,0,0,0,0,0,0,0,0,0,0,0,0,0,0,0,0,0,0,0,0,0,0,0,0,0,0,0,0,0,0,0,0,0,0,0,0,0,141,140,140,143,140,141,145,145,146,148,146,0,0,0,0,0,0,127,125,125,129,136,138,134,132,134,134,138,126,139,136,136,134,135,135,140,137,144,141,146,139,142,143,145,149,152,148,143,140,138,141,139,139,150,159,160,0,0,141,138,139,132,136,139,139,139,141,144,145,143,148,145,143,141,143,137,142,138,150,137,126,128,123,126,130,139,138,145,136,139,135,146,146,142,137,136,138,137,137,145,143,143,143,143,148,146,151,154,158,166,168,158,152,154,158,160,158,154,156,159,165,169,174,178,178,174,174,174,169,174,169,169,169,166,170,166,166,158,162,153,153,150,146,150,142,140,142,146,142,146,146,146,150,150,154,150,154,150,150,150,153,153,157,162,157,157,159,155,153,151,152,156,152,148,136,129,128,126,128,0,0,0,0,0,0,0,0,0,0,0,0,0,0,0,0,0,0,0,0,0,0,0,0,0,0,0,0,0,0,0,0,0,0,0,0
0,0,0,0,0,0,0,0,0,0,0,0,0,0,0,0,0,0,0,0,0,0,0,0,0,0,0,0,0,0,0,0,0,0,0,0,0,0,0,0,0,0,0,0,0,0,0,0,0,0,0,0,0,0,0,0,0,0,0,0,0,0,0,0,0,0,0,0,0,0,0,0,0,0,0,0,0,0,0,0,0,0,0,0,0,0,0,0,0,0,0,0,0,0,0,0,0,0,0,0,0,0,0,0,0,0,0,0,0,0,0,0,0,0,0,0,0,0,0,0,0,141,141,140,140,0,0,0,0,0,0,0,0,0,0,0,0,0,128,131,131,129,133,131,132,143,138,134,138,129,142,131,134,135,140,143,141,140,136,134,132,136,138,139,145,141,139,139,138,138,141,138,139,0,0,0,0,147,147,144,136,134,141,142,141,143,146,141,148,144,145,137,141,136,138,130,137,135,141,136,124,129,126,126,135,139,147,153,146,146,143,141,138,146,141,141,141,143,145,145,143,140,141,141,145,145,146,150,154,159,160,156,152,158,158,159,154,162,154,177,174,178,173,167,176,174,169,174,169,169,166,166,166,166,166,166,158,162,158,153,153,150,146,146,142,146,146,146,150,146,146,150,154,150,154,157,153,153,153,153,158,157,158,165,162,162,158,152,155,157,154,152,159,150,145,139,136,131,0,0,0,0,0,0,0,0,0,0,0,0,0,0,0,0,0,0,0,0,0,0,0,0,0,0,0,0,0,0,0,0,0,0,0,0,0
0,0,0,0,0,0,0,0,0,0,0,0,0,0,0,0,0,0,0,0,0,0,0,0,0,0,0,0,0,0,0,0,0,0,0,0,0,0,0,0,0,0,0,0,0,0,0,0,0,0,0,0,0,0,0,0,0,0,0,0,0,0,0,0,0,0,0,0,0,0,0,0,0,0,0,0,0,0,0,0,0,0,0,0,0,0,0,0,0,0,0,0,0,0,0,0,0,0,0,0,0,0,0,0,0,0,0,0,0,0,0,0,0,0,0,0,0,0,0,0,0,0,0,0,0,0,0,0,0,0,0,0,0,0,0,0,0,0,126,135,139,135,136,133,135,139,134,136,134,134,135,134,134,140,145,145,137,135,135,133,134,132,134,145,143,139,129,139,136,136,140,0,0,0,0,0,0,151,159,149,143,138,144,139,143,146,148,152,147,148,141,143,137,141,132,136,127,127,137,126,126,130,136,136,143,144,150,152,154,143,138,138,148,145,152,144,145,143,143,141,140,138,141,148,145,146,148,148,152,159,158,159,160,158,156,156,168,172,178,178,182,174,173,167,169,178,169,166,173,166,166,166,162,162,162,162,158,162,153,157,150,146,146,142,142,150,146,146,146,150,150,154,150,157,157,158,157,158,158,153,162,158,162,166,162,162,156,157,161,154,149,0,0,0,0,0,148,0,0,0,0,0,0,0,0,0,0,0,0,0,0,0,0,0,0,0,0,0,0,0,0,0,0,0,0,0,0,0,0,0,0,0,0,0,0
0,0,0,0,0,0,0,0,0,0,0,0,0,0,0,0,0,0,0,0,0,0,0,0,0,0,0,0,0,0,0,0,0,0,0,0,0,0,0,0,0,0,0,0,0,0,0,0,0,0,0,0,0,0,0,0,0,0,0,0,0,0,0,0,0,0,0,0,0,0,0,0,0,0,0,0,0,0,0,0,0,0,0,0,0,0,0,0,0,0,0,0,0,0,0,0,0,0,0,0,0,0,0,0,0,0,0,0,0,0,0,0,0,0,0,0,0,0,0,0,0,0,0,0,0,0,0,0,0,0,0,0,0,0,0,0,0,0,0,132,143,143,136,135,135,135,135,136,138,132,134,128,134,138,142,141,137,133,140,140,137,138,136,136,132,0,0,128,136,0,0,0,0,0,0,0,141,147,155,157,151,152,147,144,150,150,150,148,147,144,142,139,141,135,135,133,128,127,124,124,128,135,141,152,146,141,141,144,143,142,139,142,142,147,154,152,144,143,141,140,138,140,141,139,145,141,145,146,152,152,156,162,162,156,154,163,170,182,174,182,170,178,164,167,174,169,173,166,166,162,162,162,162,158,162,158,153,153,153,153,150,146,146,142,150,146,146,150,150,150,157,153,162,153,162,158,158,158,158,158,162,166,162,166,166,161,158,0,157,154,0,0,0,0,0,0,0,0,0,0,0,0,0,0,0,0,0,0,0,0,0,0,0,0,0,0,0,0,0,0,0,0,0,0,0,0,0,0,0,0,0,0,0,0,0
0,0,0,0,0,0,0,0,0,0,0,0,0,0,0,0,0,0,0,0,0,0,0,0,0,0,0,0,0,0,0,0,0,0,0,0,0,0,0,0,0,0,0,0,0,0,0,0,0,0,0,0,0,0,0,0,0,0,0,0,0,0,0,0,0,0,0,0,0,0,0,0,0,0,0,0,0,0,0,0,0,0,0,0,0,0,0,0,0,0,0,0,0,0,0,0,0,0,0,0,0,0,0,0,0,0,0,0,0,0,0,0,0,0,0,0,0,0,0,0,0,0,0,0,0,0,0,0,0,0,0,0,0,0,0,0,0,0,0,133,141,136,138,133,146,138,139,138,138,136,132,134,134,132,138,138,140,143,142,148,141,137,131,131,0,0,0,0,0,0,0,0,0,0,0,0,140,147,153,162,162,158,153,149,147,154,148,150,148,147,142,139,141,141,135,130,130,127,121,128,130,138,143,148,146,144,140,141,141,139,137,139,141,145,148,150,145,137,140,134,138,134,140,141,137,145,139,146,144,152,154,166,156,154,158,164,168,178,178,165,164,161,167,169,166,166,166,166,162,162,162,158,158,158,153,158,153,153,153,150,150,146,142,150,146,150,150,150,153,153,158,157,158,162,162,162,162,162,158,162,162,162,166,170,166,0,0,0,0,0,0,0,0,0,0,0,0,0,0,0,0,0,0,0,0,0,0,0,0,0,0,0,0,0,0,0,0,0,0,0,0,0,0,0,0,0,0,0,0,0,0,0,0,0,0
0,0,0,0,0,0,0,0,0,0,0,0,0,0,0,0,0,0,0,0,0,0,0,0,0,0,0,0,0,0,0,0,0,0,0,0,0,0,0,0,0,0,0,0,0,0,0,0,0,0,0,0,0,0,0,0,0,0,0,0,0,0,0,0,0,0,0,0,0,0,0,0,0,0,0,0,0,0,0,0,0,0,0,0,0,0,0,0,0,0,0,0,0,0,0,0,0,0,0,0,0,0,0,0,0,0,0,0,0,0,0,0,0,0,0,0,0,0,0,0,0,0,0,0,0,0,0,0,0,0,0,0,0,0,0,0,0,0,0,0,141,143,137,137,143,150,135,138,138,132,134,140,136,134,134,139,142,145,152,144,137,133,0,0,0,0,0,0,0,0,0,0,0,0,0,147,145,145,154,158,166,158,159,152,152,150,150,147,148,148,145,142,141,142,140,138,130,124,124,130,137,128,143,140,150,142,139,139,137,137,137,139,142,141,142,142,142,141,136,145,139,141,136,136,141,141,139,148,147,152,156,158,159,152,158,161,168,169,159,165,152,159,174,166,166,166,162,162,162,158,158,158,153,158,153,153,153,150,150,146,146,146,150,150,150,146,154,153,153,158,158,158,166,162,166,162,162,162,162,162,162,170,170,173,0,166,159,159,153,150,146,143,143,0,0,0,0,0,0,0,0,0,0,0,0,0,0,0,0,0,0,0,0,0,0,0,0,0,0,0,0,0,0,0,0,0,0,0,0,0,0,0,0,0,0
0,0,0,0,0,0,0,0,0,0,0,0,0,0,0,0,0,0,0,0,0,0,0,0,0,0,0,0,0,0,0,0,0,0,0,0,0,0,0,0,0,0,0,0,0,0,0,0,0,0,0,0,0,0,0,0,0,0,0,0,0,0,0,0,0,0,0,0,0,0,0,0,0,0,0,0,0,0,0,0,0,0,0,0,0,0,0,0,0,0,0,0,0,0,0,0,0,0,0,0,0,0,0,0,0,0,0,0,0,0,0,0,0,0,0,0,0,0,0,0,0,0,0,0,0,0,0,0,0,0,0,0,0,0,0,0,0,0,0,0,0,0,0,145,146,150,143,143,138,139,140,138,138,138,134,136,148,145,146,141,137,0,0,0,0,0,0,0,0,0,0,0,138,134,138,148,151,153,162,162,162,166,167,161,152,150,148,148,150,148,147,146,139,139,138,137,130,130,134,130,137,133,141,141,146,139,141,137,140,136,136,141,144,141,134,136,134,137,142,148,144,137,136,140,137,141,139,144,147,148,150,162,159,158,159,165,173,167,163,154,160,162,166,166,166,162,162,158,158,158,153,153,153,153,150,150,150,150,150,150,150,154,150,150,154,150,157,153,162,158,158,162,166,162,166,170,166,170,162,166,170,169,173,169,0,163,156,158,153,146,142,144,143,140,0,0,0,0,0,0,0,0,0,0,0,0,0,0,0,0,0,0,0,0,0,0,0,0,0,0,0,0,0,0,0,0,0,0,0,0,0,0,0,0,0
0,0,0,0,0,0,0,0,0,0,0,0,0,0,0,0,0,0,0,0,0,0,0,0,0,0,0,0,0,0,0,0,0,0,0,0,0,0,0,0,0,0,0,0,0,0,0,0,0,0,0,0,0,0,0,0,0,0,0,0,0,0,0,0,0,0,0,0,0,0,0,0,0,0,0,0,0,0,0,0,0,0,0,0,0,0,0,0,0,0,0,0,0,0,0,0,0,0,0,0,0,0,0,0,0,0,0,0,0,0,0,0,0,0,0,0,0,0,0,0,0,0,0,0,0,0,0,0,0,0,0,0,0,0,0,0,0,0,0,0,0,0,0,148,158,154,155,145,149,142,140,139,148,138,138,142,134,142,142,137,0,0,0,0,0,0,0,0,0,0,0,136,136,134,136,153,162,164,162,162,166,173,167,161,152,159,150,147,147,145,148,141,139,137,141,138,136,126,134,138,139,139,141,141,139,141,137,140,134,138,134,141,142,143,137,134,137,141,147,150,139,137,136,136,139,139,142,144,145,147,154,168,171,168,161,172,169,169,162,160,153,164,166,162,162,158,162,158,153,162,153,153,150,150,150,150,157,153,153,150,154,150,157,157,158,159,153,162,158,158,162,162,170,170,166,173,169,166,169,166,173,173,174,0,176,160,160,152,153,151,147,147,0,144,0,144,138,0,0,0,0,0,0,0,0,0,0,0,0,0,0,0,0,0,0,0,0,0,0,0,0,0,0,0,0,0,0,0,0,0,0,0,0,0,0
0,0,0,0,0,0,0,0,0,0,0,0,0,0,0,0,0,0,0,0,0,0,0,0,0,0,0,0,0,0,0,0,0,0,0,0,0,0,0,0,0,0,0,0,0,0,0,0,0,0,0,0,0,0,0,0,0,0,0,0,0,0,0,0,0,0,0,0,0,0,0,0,0,0,0,0,0,0,0,0,0,0,0,0,0,0,0,0,0,0,0,0,0,0,0,0,0,0,0,0,0,0,0,0,0,0,0,0,0,0,0,0,0,0,0,0,0,0,0,0,0,0,0,0,0,0,0,0,0,0,0,0,0,0,0,0,0,0,0,0,0,0,0,0,166,155,154,149,150,149,136,149,145,149,140,139,140,132,140,0,0,0,0,0,0,0,0,0,0,0,142,134,138,136,142,157,166,162,166,166,166,169,174,161,158,154,154,150,152,148,150,142,145,139,141,137,132,134,133,148,144,145,141,140,140,141,141,136,138,134,140,141,141,139,136,134,136,137,144,139,134,134,137,139,141,141,141,142,144,154,163,168,169,164,165,169,169,166,162,155,155,157,162,162,162,158,162,153,157,153,153,150,153,153,157,153,153,162,153,162,153,157,158,162,157,162,162,153,166,162,170,166,170,169,173,169,169,169,169,169,169,178,174,178,172,167,164,161,154,157,0,0,0,0,0,144,142,136,136,138,130,0,0,0,0,0,0,0,0,0,0,0,0,0,0,0,0,0,0,0,0,0,0,0,0,0,0,0,0,0,0,0,0,0,0
0,0,0,0,0,0,0,0,0,0,0,0,0,0,0,0,0,0,0,0,0,0,0,0,0,0,0,0,0,0,0,0,0,0,0,0,0,0,0,0,0,0,0,0,0,0,0,0,0,0,0,0,0,0,0,0,0,0,0,0,0,0,0,0,0,0,0,0,0,0,0,0,0,0,0,0,0,0,0,0,0,0,0,0,0,0,0,0,0,0,0,0,0,0,0,0,0,0,0,0,0,0,0,0,0,0,0,0,0,0,0,0,0,0,0,0,0,0,0,0,0,0,0,0,0,0,0,0,0,0,0,0,0,0,0,0,0,0,0,0,0,0,0,0,0,148,144,144,148,152,141,145,149,151,146,134,138,133,136,0,0,0,0,0,0,0,0,0,0,144,138,136,138,146,151,159,164,170,166,166,166,169,160,169,158,158,154,154,156,157,145,148,142,142,141,134,132,136,141,144,142,143,141,140,141,150,148,143,138,138,138,136,138,136,138,134,136,136,136,134,134,137,141,141,141,141,142,150,148,163,170,169,161,157,154,159,164,162,153,153,153,158,158,162,158,162,157,153,153,150,153,153,153,157,158,158,158,158,162,162,162,162,162,162,162,162,162,166,158,166,162,173,173,169,174,174,174,174,169,178,169,178,174,178,178,169,170,164,169,0,0,0,0,0,146,148,138,136,142,139,129,133,0,0,0,0,0,0,0,0,0,0,0,0,0,0,130,130,130,126,0,0,0,0,0,0,0,0,0,0,0,0,0,0,0
0,0,0,0,0,0,0,0,0,0,0,0,0,0,0,0,0,0,0,0,0,0,0,0,0,0,0,0,0,0,0,0,0,0,0,0,0,0,0,0,0,0,0,0,0,0,0,0,0,0,0,0,0,0,0,0,0,0,0,0,0,0,0,0,0,0,0,0,0,0,0,0,0,0,0,0,0,0,0,0,0,0,0,0,0,0,0,0,0,0,0,0,0,0,0,0,0,0,0,0,0,0,0,0,0,0,0,0,0,0,0,0,0,0,0,0,0,0,0,0,0,0,0,0,0,0,0,0,0,0,0,0,0,0,0,0,0,0,0,0,0,0,0,0,0,0,141,146,148,154,148,143,149,149,146,144,138,134,131,0,0,0,0,0,0,0,0,0,0,142,141,138,143,141,144,157,160,169,169,171,160,166,165,157,160,155,156,156,155,152,148,146,141,139,139,136,136,141,141,143,143,143,140,143,145,152,149,143,140,138,138,138,138,141,136,138,134,140,137,139,141,139,139,138,141,138,145,142,152,161,165,159,159,150,155,153,155,160,153,148,148,151,158,153,157,153,158,157,153,153,153,158,153,158,158,158,158,166,158,162,162,162,166,166,166,166,166,166,166,166,170,169,173,174,178,174,174,174,174,169,178,174,182,178,178,178,174,178,174,173,0,164,0,149,145,143,145,143,141,139,130,139,0,0,0,0,0,0,0,132,130,128,130,128,130,127,130,131,132,130,0,0,0,0,0,0,0,0,0,0,0,0,0,0,0
0,0,0,0,0,0,0,0,0,0,0,0,0,0,0,0,0,0,0,0,0,0,0,0,0,0,0,0,0,0,0,0,0,0,0,0,0,0,0,0,0,0,0,0,0,0,0,0,0,0,0,0,0,0,0,0,0,0,0,0,0,0,0,0,0,0,0,0,0,0,0,0,0,0,0,0,0,0,0,0,0,0,0,0,0,0,0,0,0,0,0,0,0,0,0,0,0,0,0,0,0,0,0,0,0,0,0,0,0,0,0,0,0,0,0,0,0,0,0,0,0,0,0,0,0,0,0,0,0,0,0,0,0,0,0,0,0,0,0,0,0,0,0,0,0,0,0,0,0,0,148,150,150,155,0,0,0,0,0,0,0,0,0,0,0,0,145,139,141,147,144,143,145,143,150,157,163,174,167,169,160,156,157,159,151,159,159,158,154,150,143,146,145,141,143,143,136,137,137,143,140,140,143,138,143,149,141,145,143,138,140,136,134,143,141,134,138,137,145,144,143,137,141,138,142,141,135,142,144,158,150,155,147,147,149,149,153,149,148,149,148,147,153,162,153,158,157,158,153,158,158,158,158,162,158,162,162,166,166,166,166,166,166,170,166,166,166,166,166,170,170,173,174,174,178,178,178,178,174,174,174,178,178,178,182,178,178,174,169,174,174,165,150,143,148,151,149,149,149,138,147,141,0,0,0,143,135,129,132,133,133,139,135,130,130,131,135,131,142,131,0,0,0,0,0,0,0,0,0,0,0,0,0,0,0
0,0,0,0,0,0,0,0,0,0,0,0,0,0,0,0,0,0,0,0,0,0,0,0,0,0,0,0,0,0,0,0,0,0,0,0,0,0,0,0,0,0,0,0,0,0,0,0,0,0,0,0,0,0,0,0,0,0,0,0,0,0,0,0,0,0,0,0,0,0,0,0,0,0,0,0,0,0,0,0,0,0,0,0,0,0,0,0,0,0,0,0,0,0,0,0,0,0,0,0,0,0,0,0,0,0,0,0,0,0,0,0,0,0,0,0,0,0,0,0,0,0,0,0,0,0,0,0,0,0,0,0,0,0,0,0,0,0,0,0,0,0,0,0,0,0,0,0,0,0,0,0,0,0,0,0,0,0,0,0,0,0,0,0,0,0,143,141,145,152,143,139,143,148,154,158,168,173,168,164,153,151,148,150,154,159,161,153,145,145,141,143,143,142,145,150,145,141,139,140,143,140,140,140,140,143,140,145,143,143,136,140,136,141,140,140,138,141,147,154,144,139,141,142,133,141,139,139,142,148,150,149,150,143,145,145,143,150,141,149,144,158,157,158,158,158,158,158,158,158,158,162,162,162,162,166,166,170,166,170,166,170,170,170,170,170,170,173,170,170,173,169,173,178,174,178,178,178,178,174,174,178,178,182,178,178,178,174,174,174,174,161,150,150,154,156,168,154,150,148,147,143,156,157,147,149,143,138,138,133,138,137,139,135,132,130,130,135,133,0,0,0,0,0,0,0,0,0,0,0,0,0,0,0,0
0,0,0,0,0,0,0,0,0,0,0,0,0,0,0,0,0,0,0,0,0,0,0,0,0,0,0,0,0,0,0,0,0,0,0,0,0,0,0,0,0,0,0,0,0,0,0,0,0,0,0,0,0,0,0,0,0,0,0,0,0,0,0,0,0,0,0,0,0,0,0,0,0,0,0,0,0,0,0,0,0,0,0,0,0,0,0,0,0,0,0,0,0,0,0,0,0,0,0,0,0,0,0,0,0,0,0,0,0,0,0,0,0,0,0,0,0,0,0,0,0,0,0,0,0,0,0,0,0,0,0,0,0,0,0,0,0,0,0,0,0,0,0,0,0,0,0,0,0,0,0,0,0,0,0,0,0,0,0,0,0,0,0,0,0,0,148,148,146,144,143,146,141,144,154,159,168,163,156,155,152,149,147,148,150,155,153,149,145,145,142,143,138,138,148,156,159,145,139,139,140,143,143,141,143,138,138,140,143,138,138,136,138,138,136,138,140,146,154,159,154,145,141,137,144,139,134,139,137,148,145,145,147,142,141,140,138,139,142,138,157,158,158,158,162,162,158,162,162,162,166,162,162,162,166,170,166,173,166,169,170,166,173,169,173,169,173,173,173,173,169,178,174,174,178,178,178,178,178,178,174,178,178,178,174,182,178,178,178,176,169,163,150,150,148,150,154,152,144,148,148,150,147,158,149,151,143,143,143,139,131,138,133,132,132,132,130,0,0,0,0,0,0,0,0,0,0,0,0,0,0,0,0,0,0
0,0,0,0,0,0,0,0,0,0,0,0,0,0,0,0,0,0,0,0,0,0,0,0,0,0,0,0,0,0,0,0,0,0,0,0,0,0,0,0,0,0,0,0,0,0,0,0,0,0,0,0,0,0,0,0,0,0,0,0,0,0,0,0,0,0,0,0,0,0,0,0,0,0,0,0,0,0,0,0,0,0,0,0,0,0,0,0,0,0,0,0,0,0,0,0,0,0,0,0,0,0,0,0,0,0,0,0,0,0,0,0,0,0,0,0,0,0,0,0,0,0,0,0,0,0,0,0,0,0,0,0,0,0,0,0,0,0,0,0,0,0,0,0,0,0,0,0,0,0,0,0,0,0,0,0,0,0,0,0,0,0,0,0,0,0,144,148,143,143,144,148,146,156,154,158,160,160,154,152,150,148,145,144,146,148,146,144,142,140,142,142,138,135,138,150,157,155,147,142,139,143,141,138,141,141,141,141,141,138,138,138,138,138,138,140,138,145,152,159,152,145,141,143,136,144,139,141,148,148,148,150,149,143,138,146,142,134,134,146,156,158,166,162,162,162,162,162,162,166,162,166,166,169,166,169,169,174,169,173,169,173,169,178,169,173,174,178,169,178,174,178,174,178,178,178,178,182,178,178,178,178,178,178,178,174,178,174,168,156,158,158,148,147,147,148,150,146,148,154,150,148,141,142,136,143,147,143,141,134,136,134,137,133,134,132,132,0,0,0,0,0,0,0,0,0,0,0,0,0,0,0,0,0,0
0,0,0,0,0,0,0,0,0,0,0,0,0,0,0,0,0,0,0,0,0,0,0,0,0,0,0,0,0,0,0,0,0,0,0,0,0,0,0,0,0,0,0,0,0,0,0,0,0,0,0,0,0,0,0,0,0,0,0,0,0,0,0,0,0,0,0,0,0,0,0,0,0,0,0,0,0,0,0,0,0,0,0,0,0,0,0,0,0,0,0,0,0,0,0,0,0,0,0,0,0,0,0,0,0,0,0,0,0,0,0,0,0,0,0,0,0,0,0,0,0,0,0,0,0,0,0,0,0,0,0,0,0,0,0,0,0,0,0,0,0,0,0,0,0,0,0,0,0,0,0,0,0,0,0,0,0,0,0,0,0,0,0,0,0,145,152,150,150,156,156,162,163,160,154,154,158,154,154,150,150,150,145,144,144,138,141,138,136,139,144,147,145,136,144,147,150,149,142,134,143,139,141,141,141,140,140,140,138,140,140,138,138,140,140,143,138,141,151,150,149,141,143,143,140,145,146,146,148,144,146,158,149,148,145,154,145,139,142,139,158,162,162,162,166,166,166,170,166,170,166,169,169,169,169,174,174,174,169,174,174,169,174,174,174,174,178,174,178,174,178,178,178,182,178,178,178,178,178,178,178,174,178,174,167,170,164,165,159,154,156,158,148,148,152,154,152,148,148,150,147,145,135,137,135,139,139,144,144,141,139,137,139,137,133,130,130,135,0,0,0,0,0,0,0,0,0,0,0,0,0,0,0,0,0
0,0,0,0,0,0,0,0,0,0,0,0,0,0,0,0,0,0,0,0,0,0,0,0,0,0,0,0,0,0,0,0,0,0,0,0,0,0,0,0,0,0,0,0,0,0,0,0,0,0,0,0,0,0,0,0,0,0,0,0,0,0,0,0,0,0,0,0,0,0,0,0,0,0,0,0,0,0,0,0,0,0,0,0,0,0,0,0,0,0,0,0,0,0,0,0,0,0,0,0,0,0,0,0,0,0,0,0,0,0,0,0,0,0,0,0,0,0,0,0,0,0,0,0,0,0,0,0,0,0,0,0,0,0,0,0,0,0,0,0,0,0,0,0,0,0,0,0,0,0,0,0,0,0,0,0,0,0,0,0,0,0,0,0,0,141,146,159,163,168,173,171,166,156,152,150,152,152,152,152,148,150,145,148,144,141,139,139,138,144,151,152,147,141,147,144,142,138,137,134,139,137,145,143,136,140,140,140,140,140,138,143,143,138,138,140,143,148,145,143,143,143,143,141,143,143,145,148,146,144,150,150,159,147,143,149,145,148,149,143,155,166,166,166,169,169,173,169,173,169,173,169,169,174,169,174,174,174,174,174,174,174,178,178,178,174,174,178,174,182,178,178,178,178,178,178,178,178,178,178,178,169,167,165,169,168,165,164,161,158,154,154,154,152,154,147,142,142,146,139,137,136,140,137,137,141,142,145,139,145,141,139,137,134,133,133,136,135,0,0,0,0,0,0,0,0,0,0,0,0,0,0,0,0,0
0,0,0,0,0,0,0,0,0,0,0,0,0,0,0,0,0,0,0,0,0,0,0,0,0,0,0,0,0,0,0,0,0,0,0,0,0,0,0,0,0,0,0,0,0,0,0,0,0,0,0,0,0,0,0,0,0,0,0,0,0,0,0,0,0,0,0,0,0,0,0,0,0,0,0,0,0,0,0,0,0,0,0,0,0,0,0,0,0,0,0,0,0,0,0,0,0,0,0,0,0,0,0,0,0,0,0,0,0,0,0,0,0,0,0,0,0,0,0,0,0,0,0,0,0,0,0,0,0,0,0,0,0,0,0,0,0,0,0,0,0,0,0,0,0,0,0,0,0,0,0,0,0,0,0,0,0,0,0,0,0,0,0,0,137,144,158,165,174,174,176,166,148,146,145,149,151,149,151,151,149,151,145,144,145,141,135,141,148,153,156,160,150,153,156,141,135,133,134,136,134,141,139,139,139,139,143,139,141,137,143,148,146,146,141,138,143,149,149,148,143,143,143,145,141,141,143,142,146,144,150,150,145,149,147,147,143,143,147,149,153,157,169,169,173,169,173,173,173,173,174,178,174,174,178,174,182,178,178,178,178,174,178,178,178,178,178,178,178,178,178,178,178,178,178,178,178,178,182,178,174,174,174,173,169,173,174,169,159,152,146,154,154,154,150,142,145,139,143,137,141,137,140,133,141,143,139,143,148,145,143,141,139,136,137,133,137,139,0,0,0,0,0,0,0,0,0,0,0,0,0,0,0,0,0
0,0,0,0,0,0,0,0,0,0,0,0,0,0,0,0,0,0,0,0,0,0,0,0,0,0,0,0,0,0,0,0,0,0,0,0,0,0,0,0,0,0,0,0,0,0,0,0,0,0,0,0,0,0,0,0,0,0,0,0,0,0,0,0,0,0,0,0,0,0,0,0,0,0,0,0,0,0,0,0,0,0,0,0,0,0,0,0,0,0,0,0,0,0,0,0,0,0,0,0,0,0,0,0,0,0,0,0,0,0,0,0,0,0,0,0,0,0,0,0,0,0,0,0,0,0,0,0,0,0,0,0,0,0,0,0,0,0,0,0,0,0,0,0,0,0,0,0,0,0,0,0,0,0,0,0,0,0,0,0,0,0,0,0,133,144,154,174,174,174,174,159,148,145,143,145,148,148,151,151,144,142,153,147,147,139,142,144,151,155,168,168,165,162,164,144,135,135,130,136,136,136,142,134,141,139,139,144,141,139,142,147,146,143,140,141,143,146,151,148,148,148,149,150,148,146,141,145,142,143,148,150,139,138,144,149,136,138,138,145,154,159,162,174,178,178,174,178,178,178,178,174,178,178,182,178,178,182,178,178,178,178,178,178,174,178,178,178,174,178,174,178,178,178,178,182,178,182,178,178,182,178,173,178,169,173,167,166,156,158,146,144,152,152,148,144,137,143,139,137,141,137,140,140,137,141,141,148,143,145,141,141,139,134,134,136,139,144,139,0,0,0,0,0,0,0,0,0,0,0,0,0,0,0,0
0,0,0,0,0,0,0,0,0,0,0,0,0,0,0,0,0,0,0,0,0,0,0,0,0,0,0,0,0,0,0,0,0,0,0,0,0,0,0,0,0,0,0,0,0,0,0,0,0,0,0,0,0,0,0,0,0,0,0,0,0,0,0,0,0,0,0,0,0,0,0,0,0,0,0,0,0,0,0,0,0,0,0,0,0,0,0,0,0,0,0,0,0,0,0,0,0,0,0,0,0,0,0,0,0,0,0,0,0,0,0,0,0,0,0,0,0,0,0,0,0,0,0,0,0,0,0,0,0,0,0,0,0,0,0,0,0,143,0,0,0,0,0,0,0,0,0,0,0,0,0,0,0,0,0,0,0,0,0,0,0,0,0,0,0,133,150,159,169,168,169,154,147,152,143,143,145,145,148,151,147,147,147,148,146,144,141,144,146,156,172,175,171,172,157,141,138,136,130,132,137,136,139,137,134,139,139,146,134,139,139,152,142,141,141,141,143,140,146,145,149,154,156,158,150,152,150,141,137,144,146,139,138,133,135,138,136,138,141,150,152,168,170,178,174,178,182,178,178,178,182,182,178,182,178,182,182,178,182,178,174,182,174,174,174,178,174,178,174,174,178,182,178,182,178,178,182,174,182,178,174,178,178,169,172,162,157,156,159,145,148,143,146,150,150,144,139,139,139,139,139,140,136,140,141,143,145,148,145,143,141,141,139,137,136,139,141,141,144,0,0,0,0,0,0,0,0,0,0,0,0,0,0,0,0
0,0,0,0,0,0,0,0,0,0,0,0,0,0,0,0,0,0,0,0,0,0,0,0,0,0,0,0,0,0,0,0,0,0,0,0,0,0,0,0,0,0,0,0,0,0,0,0,0,0,0,0,0,0,0,0,0,0,0,0,0,0,0,0,0,0,0,0,0,0,0,0,0,0,0,0,0,0,0,0,0,0,0,0,0,0,0,0,0,0,0,0,0,0,0,0,0,0,0,0,0,0,0,0,0,0,0,0,0,0,0,0,0,0,0,0,0,0,0,0,0,0,0,0,0,0,0,0,0,0,0,143,144,147,147,143,144,143,143,141,141,140,0,0,145,146,153,0,0,0,0,0,0,0,0,0,0,0,0,0,0,0,0,0,0,132,145,156,156,159,156,156,152,148,143,143,143,148,148,139,147,148,150,148,141,141,143,143,158,157,172,172,171,156,153,151,136,139,137,134,133,138,135,137,139,141,142,142,139,134,144,144,144,141,139,139,139,142,143,143,145,152,156,160,160,150,150,141,137,133,138,138,132,132,128,134,131,132,145,147,159,165,178,178,182,182,182,182,182,182,182,182,182,182,182,182,182,182,174,178,174,178,174,174,174,169,174,174,178,169,178,174,178,178,182,182,174,185,178,178,178,178,166,166,164,160,150,149,150,143,143,139,150,153,150,141,137,141,144,141,145,139,141,139,143,146,150,146,145,143,141,141,143,137,141,134,143,143,146,0,0,0,0,0,0,0,0,0,0,0,0,0,0,0,0
0,0,0,0,0,0,0,0,0,0,0,0,0,0,0,0,0,0,0,0,0,0,0,0,0,0,0,0,0,0,0,0,0,0,0,0,0,0,0,0,0,0,0,0,0,0,0,0,0,0,0,0,0,0,0,0,0,0,0,0,0,0,0,0,0,0,0,0,0,0,0,0,0,0,0,0,0,0,0,0,0,0,0,0,0,0,0,0,0,0,0,0,0,0,0,0,0,0,0,0,0,0,0,0,0,0,0,0,0,0,0,0,0,0,0,0,0,0,0,0,0,0,0,150,150,150,147,150,147,147,143,147,143,144,150,144,146,143,143,143,141,143,146,151,151,148,151,153,156,0,0,0,0,0,0,0,0,0,0,0,0,0,0,0,121,132,143,162,158,149,143,141,141,144,141,139,145,143,146,146,151,153,146,137,146,146,139,146,155,164,176,178,164,153,154,142,144,144,141,139,139,137,139,138,138,138,138,138,135,141,147,144,147,137,141,139,142,139,139,139,139,143,143,140,148,143,133,141,138,135,139,139,138,140,131,136,131,142,145,151,162,168,173,172,173,173,185,182,185,185,182,185,182,182,182,182,182,178,182,178,174,178,169,169,169,174,169,169,173,172,178,174,180,178,182,178,182,178,178,178,171,171,165,162,159,153,147,147,139,137,136,141,138,143,136,133,140,148,143,148,150,142,142,146,145,152,156,152,141,136,140,141,137,139,137,141,139,143,146,0,0,0,0,0,0,0,0,0,0,0,0,0,0,0,0
0,0,0,0,0,0,0,0,0,0,0,0,0,0,0,0,0,0,0,0,0,0,0,0,0,0,0,0,0,0,0,0,0,0,0,0,0,0,0,0,0,0,0,0,0,0,0,0,0,0,0,0,0,0,0,0,0,0,0,0,0,0,0,0,0,0,0,0,0,0,0,0,0,0,0,0,0,0,0,0,0,0,0,0,0,0,0,0,0,0,0,0,0,0,0,0,0,0,0,0,0,0,0,0,0,0,138,0,0,0,0,0,0,0,0,0,0,0,0,0,0,0,150,150,152,143,152,147,147,147,147,147,143,147,144,147,147,147,144,144,143,141,146,155,157,151,145,146,143,146,0,0,0,0,0,0,0,138,140,137,134,132,131,124,124,128,143,156,145,135,133,134,134,139,142,147,139,142,142,142,139,141,144,140,142,141,147,147,151,162,168,161,160,154,153,147,146,147,151,150,144,140,139,140,143,140,143,138,138,144,146,153,144,141,137,134,137,134,134,141,139,137,136,137,132,130,132,133,138,138,141,145,138,144,144,145,140,140,143,147,152,158,166,163,168,163,177,185,181,185,185,182,185,182,185,182,182,185,178,170,178,165,166,162,158,159,160,164,168,169,173,182,180,182,182,182,182,182,182,180,172,170,163,164,166,159,150,143,144,139,136,136,139,139,130,136,144,150,150,163,155,148,148,146,141,150,154,152,142,140,136,140,136,141,145,139,141,148,0,0,0,0,0,0,0,0,0,0,0,0,0,0,0,0,0
0,0,0,0,0,0,0,0,0,0,0,0,0,0,0,0,0,0,0,0,0,0,0,0,0,0,0,0,0,0,0,0,0,0,0,0,0,0,0,0,0,0,0,0,0,0,0,0,0,0,0,0,0,0,0,0,0,0,0,0,0,0,0,0,0,0,0,0,0,0,0,0,0,0,0,0,0,0,0,0,0,0,0,0,0,0,0,0,0,0,0,0,0,0,0,0,0,0,0,0,0,0,0,0,0,0,0,0,0,0,0,0,0,0,0,0,0,0,0,0,0,0,150,150,148,146,146,150,147,143,143,147,147,146,144,147,147,144,144,141,143,141,145,145,148,142,140,143,140,140,140,136,138,137,141,143,138,138,134,136,131,132,131,124,124,129,132,132,134,127,131,128,132,137,145,143,147,142,139,138,143,135,137,146,142,146,146,147,158,160,158,153,153,151,151,150,150,155,163,157,145,145,143,137,139,142,138,143,132,137,149,146,141,143,133,137,134,137,134,131,139,137,136,125,131,128,130,126,126,130,135,142,135,148,151,151,139,143,141,152,155,161,166,162,164,161,172,175,181,183,185,181,185,185,182,182,179,170,170,165,168,162,156,156,159,156,156,161,159,170,171,177,177,175,182,185,182,185,182,183,172,166,166,172,166,154,141,139,136,141,136,136,139,132,136,132,139,148,159,159,157,150,146,139,141,141,154,158,142,137,140,136,140,137,143,148,149,0,0,0,0,0,0,0,0,0,0,0,0,0,0,0,0,0,0
0,0,0,0,0,0,0,0,0,0,0,0,0,0,0,0,0,0,0,0,0,0,0,0,0,0,0,0,0,0,0,0,0,0,0,0,0,0,0,0,0,0,0,0,0,0,0,0,0,0,0,0,0,0,0,0,0,0,0,0,0,0,0,0,0,0,0,0,0,0,0,0,0,0,0,0,0,0,0,0,0,0,0,0,0,0,0,0,0,0,0,0,0,0,0,0,0,0,0,0,0,0,0,0,0,0,0,0,0,0,0,0,0,0,0,0,0,0,0,0,0,153,155,150,152,148,146,141,146,143,146,143,143,147,146,144,144,144,143,141,141,141,143,138,143,140,141,140,138,140,138,134,140,139,146,143,143,138,140,134,137,132,127,127,132,135,132,123,116,125,124,126,128,133,151,145,139,137,144,141,135,141,138,147,147,146,148,155,156,160,152,149,149,149,148,149,152,163,163,157,147,142,142,144,142,138,147,146,143,146,143,136,137,133,131,133,133,133,134,129,132,131,127,131,125,124,124,126,129,135,142,141,140,149,147,143,147,141,142,156,155,163,163,161,160,157,163,170,175,175,182,183,185,185,173,170,172,164,156,155,154,159,152,154,161,159,159,155,158,162,163,172,173,174,179,185,185,185,185,179,170,160,161,166,161,151,145,141,144,137,144,139,134,139,132,131,128,137,138,143,150,143,141,133,137,144,156,152,142,137,137,137,143,141,143,141,0,0,0,0,0,0,0,0,0,0,0,0,0,0,0,0,0,0,0
0,0,0,0,0,0,0,0,0,0,0,0,0,0,0,0,0,0,0,0,0,0,0,0,0,0,0,0,0,0,0,0,0,0,0,0,0,0,0,0,0,0,0,0,0,0,0,0,0,0,0,0,0,0,0,0,0,0,0,0,0,0,0,0,0,0,0,0,0,0,0,0,0,0,0,0,0,0,0,0,0,0,0,0,0,0,0,0,0,0,0,0,0,0,0,0,0,0,0,0,0,0,0,0,0,0,0,0,0,0,0,0,0,0,0,0,0,0,0,0,0,153,155,152,151,146,143,141,143,146,143,143,146,147,146,144,147,144,143,141,143,140,141,140,138,140,138,140,136,138,140,138,140,146,147,149,143,143,138,140,134,132,136,133,135,135,126,121,120,116,122,122,122,127,134,141,135,146,147,146,135,135,138,142,147,145,149,152,158,157,152,149,147,152,149,149,152,152,160,149,147,146,150,141,147,144,150,158,155,150,143,141,135,130,130,130,127,135,127,133,128,131,124,128,124,124,124,129,137,142,155,163,160,159,155,150,143,144,148,154,156,156,154,154,154,157,157,166,164,166,166,168,176,177,168,168,164,158,154,143,146,150,161,161,155,150,150,150,152,159,159,164,170,164,166,168,174,177,172,170,158,154,157,157,154,151,143,145,149,144,136,136,139,136,137,132,130,136,133,139,133,135,133,133,133,141,144,141,137,139,141,142,142,0,0,0,0,0,0,0,0,0,0,0,0,0,0,0,0,0,0,0,0,0,0
0,0,0,0,0,0,0,0,0,0,0,0,0,0,0,0,0,0,0,0,0,0,0,0,0,0,0,0,0,0,0,0,0,0,0,0,0,0,0,0,0,0,0,0,0,0,0,0,0,0,0,0,0,0,0,0,0,0,0,0,0,0,0,0,0,0,0,0,0,0,0,0,0,0,0,0,0,0,0,0,0,0,0,0,0,0,0,0,0,0,0,0,0,0,0,0,0,0,0,0,0,0,0,0,0,0,0,0,0,0,0,0,0,0,0,0,0,0,0,0,0,0,155,155,151,147,146,143,143,140,141,138,143,143,144,150,147,147,141,143,138,143,138,140,140,138,138,136,140,136,138,135,140,143,148,144,143,140,143,141,141,134,136,128,135,133,124,120,122,120,118,120,122,124,124,130,136,141,142,139,137,138,135,141,139,143,145,152,152,155,149,150,150,147,152,155,147,150,147,147,146,150,145,150,151,149,148,152,152,148,152,148,137,128,126,127,127,132,129,131,131,130,139,133,130,128,124,128,138,145,149,173,163,169,166,154,154,154,153,153,153,153,157,157,157,161,163,160,161,157,157,157,167,169,168,161,156,143,152,148,155,157,164,161,158,152,152,154,150,154,160,159,160,163,158,160,164,168,167,161,157,153,149,148,146,146,146,148,149,149,143,143,136,136,144,142,144,136,131,132,138,140,137,139,132,130,136,136,136,141,141,144,0,0,0,0,0,0,0,0,0,0,0,0,0,0,0,0,0,0,0,0,0,0,0
0,0,0,0,0,0,0,0,0,0,0,0,0,0,0,0,0,0,0,0,0,0,0,0,0,0,0,0,0,0,0,0,0,0,0,0,0,0,0,0,0,0,0,0,0,0,0,0,0,0,0,0,0,0,0,0,0,0,0,0,0,0,0,0,0,0,0,0,0,0,0,0,0,0,0,0,0,0,0,0,0,0,0,0,0,0,0,0,0,0,0,0,0,0,0,0,0,0,0,0,0,0,0,0,0,0,0,0,0,0,0,0,0,0,0,0,0,0,0,0,0,0,156,151,152,152,147,145,143,140,135,141,138,143,143,147,147,141,143,138,143,138,140,140,136,138,136,138,136,138,138,135,138,140,143,139,136,136,138,143,137,141,132,137,135,128,127,121,124,120,121,115,123,120,124,123,129,132,134,134,139,137,138,141,145,145,150,147,150,152,150,150,147,152,152,152,152,147,144,147,145,146,145,152,155,146,143,142,139,145,151,141,133,132,123,123,125,123,129,129,131,135,145,136,132,130,130,130,139,141,148,158,159,159,168,158,157,158,161,150,144,145,147,153,160,164,166,160,159,159,146,151,149,157,165,157,147,143,155,162,159,159,161,158,152,148,152,150,156,158,156,157,160,163,163,167,168,170,174,167,157,155,153,146,148,146,146,151,151,148,148,145,143,143,146,152,148,141,132,141,144,154,148,142,140,136,134,136,136,0,0,0,0,0,0,0,0,0,0,0,0,0,0,0,0,0,0,0,0,0,0,0,0,0,0
0,0,0,0,0,0,0,0,0,0,0,0,0,0,0,0,0,0,0,0,0,0,0,0,0,0,0,0,0,0,0,0,0,0,0,0,0,0,0,0,0,0,0,0,0,0,0,0,0,0,0,0,0,0,0,0,0,0,0,0,0,0,0,0,0,0,0,0,0,0,0,0,0,0,0,0,0,0,0,0,0,0,0,0,0,0,0,0,0,0,0,0,0,0,0,0,0,0,0,0,0,0,0,0,0,0,0,0,0,0,0,0,0,0,0,0,0,0,0,0,0,0,0,156,153,147,149,146,143,136,137,138,138,138,140,147,141,143,143,140,140,138,140,136,138,136,138,134,138,135,135,131,134,138,136,134,134,136,138,140,141,137,134,133,132,125,121,126,118,120,121,123,117,123,120,121,126,130,131,127,135,137,138,142,148,143,147,150,150,147,152,150,152,150,155,152,149,147,144,147,143,146,147,151,149,142,139,137,139,144,142,138,129,132,125,129,129,126,130,137,134,143,156,147,150,143,138,138,142,141,144,157,154,154,154,154,155,154,157,148,147,144,151,157,164,173,175,166,157,153,151,148,157,161,163,157,148,148,154,152,154,152,150,150,152,147,147,154,154,152,152,152,154,160,173,181,187,184,173,157,146,151,151,147,146,146,148,151,148,146,148,151,143,140,143,149,146,148,154,147,143,144,148,141,134,136,0,0,0,0,0,0,0,0,0,0,0,0,0,0,0,0,0,0,0,0,0,0,0,0,0,0,0,0,0
0,0,0,0,0,0,0,0,0,0,0,0,0,0,0,0,0,0,0,0,0,0,0,0,0,0,0,0,0,0,0,0,0,0,0,0,0,0,0,0,0,0,0,0,0,0,0,0,0,0,0,0,0,0,0,0,0,0,0,0,0,0,0,0,0,0,0,0,0,0,0,0,0,0,0,0,0,0,0,0,0,0,0,0,0,0,0,0,0,0,0,0,0,0,0,0,0,0,0,0,0,0,0,0,0,0,0,0,0,0,0,0,0,0,0,0,0,0,0,0,0,0,157,153,153,152,147,141,137,137,138,135,138,138,140,139,139,141,143,143,140,138,138,138,136,138,134,135,135,135,131,131,134,129,134,127,132,134,132,137,141,136,140,130,132,125,129,121,122,122,121,120,115,117,116,120,121,126,125,125,131,134,141,143,145,143,146,150,150,146,146,149,150,155,155,155,152,150,147,143,146,143,143,147,142,146,147,144,139,139,139,133,133,132,129,138,140,144,144,151,150,154,157,159,150,147,140,148,143,148,152,160,156,149,149,151,154,154,154,161,157,154,171,174,173,170,173,167,161,159,160,168,175,178,170,165,147,152,150,148,152,150,148,148,152,150,156,154,158,152,150,152,158,168,186,187,187,189,169,152,148,150,152,147,148,148,150,148,148,143,146,143,143,140,143,140,143,142,148,147,141,139,137,132,134,0,0,0,0,0,0,0,0,0,0,0,0,0,0,0,0,0,0,0,0,0,0,0,0,0,0,0,0,0,0
0,0,0,0,0,0,0,0,0,0,0,0,0,0,0,0,0,0,0,0,0,0,0,0,0,0,0,0,0,0,0,0,0,0,0,0,0,0,0,0,0,0,0,0,0,0,0,0,0,0,0,0,0,0,0,0,0,0,0,0,0,0,0,0,0,0,0,0,0,0,0,0,0,0,0,0,0,0,0,0,0,0,0,0,0,0,0,0,0,0,0,0,0,0,0,0,0,0,0,0,0,0,0,0,0,0,0,0,0,0,0,0,0,0,0,0,0,0,0,0,0,160,157,153,147,146,140,141,136,134,134,135,132,138,135,140,137,139,140,136,138,140,140,136,135,134,138,135,135,135,131,131,127,131,127,127,132,134,130,137,133,139,133,132,125,125,121,126,122,118,120,115,117,115,118,118,120,122,127,123,132,134,135,137,138,146,146,150,148,146,143,148,146,152,152,152,149,147,147,145,146,148,143,143,143,146,147,139,144,139,136,134,135,133,135,142,142,142,157,157,154,162,154,154,152,147,144,148,147,154,159,163,157,150,143,149,152,160,158,163,161,161,175,180,180,177,170,172,160,152,165,173,173,176,176,163,151,148,148,158,154,160,154,154,148,156,159,173,170,163,161,154,154,161,172,186,187,185,169,155,152,150,148,151,147,147,147,145,147,146,148,151,143,146,138,140,138,140,144,144,136,132,123,136,127,0,0,0,0,0,0,0,0,0,0,0,0,0,0,0,0,0,0,0,0,0,0,0,0,0,0,0,0,0,0
0,0,0,0,0,0,0,0,0,0,0,0,0,0,0,0,0,0,0,0,0,0,0,0,0,0,0,0,0,0,0,0,0,0,0,0,0,0,0,0,0,0,0,0,0,0,0,0,0,0,0,0,0,0,0,0,0,0,0,0,0,0,0,0,0,0,0,0,0,0,0,0,0,0,0,0,0,0,0,0,0,0,0,0,0,0,0,0,0,0,0,0,0,0,0,0,0,0,0,0,0,0,0,0,0,0,0,0,0,0,0,160,158,162,158,0,0,0,0,0,159,157,155,147,151,146,142,138,136,127,134,131,132,135,135,138,134,141,139,136,134,134,132,134,134,135,135,133,131,129,131,124,129,131,129,121,127,125,129,133,141,132,135,127,130,125,126,118,122,120,115,115,120,115,118,123,131,130,119,128,128,134,137,135,140,143,141,146,141,149,146,151,148,155,152,149,150,145,145,146,148,145,145,145,146,146,143,143,140,139,136,134,134,136,136,143,148,151,153,161,162,161,154,146,148,147,148,144,148,152,162,160,160,152,146,145,154,158,164,170,174,172,176,184,187,171,161,153,149,152,157,163,164,173,164,153,149,150,154,159,168,161,162,160,152,156,166,178,178,169,162,152,151,157,164,166,166,167,164,156,157,156,156,150,153,150,145,145,145,147,153,159,153,143,146,138,140,140,134,131,127,129,129,127,0,0,0,0,0,0,0,0,0,0,0,0,0,0,0,0,0,0,0,0,0,0,0,0,0,0,0,0,0,0,0
0,0,0,0,0,0,0,0,0,0,0,0,0,0,0,0,0,0,0,0,0,0,0,0,0,0,0,0,0,0,0,0,0,0,0,0,0,0,0,0,0,0,0,0,0,0,0,0,0,0,0,0,0,0,0,0,0,0,0,0,0,0,0,0,0,0,0,0,0,0,0,0,0,0,0,0,0,0,0,0,0,0,0,0,0,0,0,0,0,0,0,0,0,0,0,0,0,0,0,0,0,0,0,0,0,0,0,0,0,0,0,160,160,165,162,158,0,0,0,157,156,152,153,147,142,138,140,134,134,130,130,131,131,132,132,136,137,134,131,131,134,136,134,130,126,134,131,134,129,129,126,126,131,124,128,119,126,125,125,130,133,138,130,127,124,128,121,122,120,120,113,120,118,124,123,126,133,137,127,125,128,132,131,135,141,141,141,141,149,149,146,154,155,149,150,147,147,147,147,153,150,150,141,145,143,148,145,140,140,139,139,136,137,137,141,143,151,151,151,157,173,162,155,152,146,147,145,148,152,159,164,154,152,156,154,154,152,152,154,159,170,168,166,182,187,161,155,152,151,147,152,159,156,155,157,144,149,152,151,160,159,159,158,159,158,152,159,177,185,170,161,153,145,152,155,153,153,152,152,151,155,155,152,155,156,150,153,150,145,150,161,167,157,148,143,140,138,134,134,134,129,126,128,127,0,0,0,0,0,0,0,0,0,0,0,0,0,0,0,0,0,0,0,0,0,0,0,0,0,0,0,0,0,0,0
0,0,0,0,0,0,0,0,0,0,0,0,0,0,0,0,0,0,0,0,0,0,0,0,0,0,0,0,0,0,0,0,0,0,0,0,0,0,0,0,0,0,0,0,0,0,0,0,0,0,0,0,0,0,0,0,0,0,0,0,0,0,0,0,0,0,0,0,0,0,0,0,0,0,0,0,0,0,0,0,0,0,0,0,0,0,0,0,0,0,0,0,0,0,0,0,0,0,0,0,0,0,0,0,0,0,0,0,0,0,0,160,160,163,162,160,160,157,157,154,153,152,145,146,144,142,134,134,130,132,127,128,128,128,130,130,138,135,133,131,129,129,126,129,134,134,131,129,124,129,122,124,119,128,118,120,121,126,124,130,132,126,124,124,128,124,124,124,118,120,123,120,120,123,127,130,136,134,134,126,132,131,133,135,135,138,138,146,145,149,146,151,151,150,147,150,147,146,148,145,150,143,145,141,146,149,149,143,134,137,137,136,142,140,144,139,154,145,148,155,173,156,154,148,152,144,152,152,159,163,159,152,152,154,152,152,152,146,145,146,148,158,157,164,175,155,148,150,150,151,148,153,149,151,140,142,142,149,149,157,158,154,152,154,152,150,157,164,164,160,148,149,147,147,147,153,152,148,151,151,151,153,153,153,153,155,151,148,153,148,157,161,157,146,146,143,141,137,134,129,126,128,131,128,0,0,0,0,0,0,0,0,0,0,0,0,0,0,0,0,0,0,0,0,0,0,0,0,0,0,0,0,0,0,0
0,0,0,0,0,0,0,0,0,0,0,0,0,0,0,0,0,0,0,0,0,0,0,0,0,0,0,0,0,0,0,0,0,0,0,0,0,0,0,0,0,0,0,0,0,0,0,0,0,0,0,0,0,0,0,0,0,0,0,0,0,0,0,0,0,0,0,0,0,0,0,0,0,0,0,0,0,0,0,0,0,0,0,0,0,0,0,0,0,0,0,0,0,0,0,0,0,0,0,0,0,0,0,0,0,0,0,0,0,0,0,160,160,158,160,154,155,153,155,150,150,145,151,140,142,134,134,130,130,122,127,124,127,128,129,129,130,130,127,127,128,128,129,126,126,129,124,124,120,123,124,119,120,118,116,122,120,118,124,124,124,124,121,121,124,121,125,120,118,120,120,124,127,124,127,127,135,131,132,132,134,134,136,134,131,134,140,143,150,149,146,163,157,155,147,152,152,148,146,143,145,147,143,146,151,151,145,143,139,137,142,140,148,148,155,150,141,145,142,151,155,150,150,154,145,154,152,159,160,160,156,152,147,154,150,152,150,148,145,143,143,148,148,145,154,151,143,148,150,148,148,157,159,147,142,142,142,145,149,154,145,150,148,148,150,150,154,159,154,147,147,149,145,147,147,155,153,153,150,151,153,151,152,152,152,150,153,156,153,156,150,157,150,146,146,143,139,137,129,131,126,128,129,129,0,0,0,0,0,0,0,0,0,0,0,0,0,0,0,0,0,0,0,0,0,0,0,0,0,0,0,0,0,0,0
0,0,0,0,0,0,0,0,0,0,0,0,0,0,0,0,0,0,0,0,0,0,0,0,0,0,0,0,0,0,0,0,0,0,0,0,0,0,0,0,0,0,0,0,0,0,0,0,0,0,0,0,0,0,0,0,0,0,0,0,0,0,0,0,0,0,0,0,0,0,0,0,0,0,0,0,0,0,0,0,0,0,0,0,0,0,0,0,0,0,0,0,0,0,0,0,0,0,0,0,0,0,0,0,0,0,0,0,0,0,162,160,162,158,156,151,148,153,150,148,145,145,144,140,140,134,130,127,127,122,119,124,127,127,133,137,128,126,122,126,130,129,125,128,123,124,124,123,124,119,123,115,116,116,114,114,121,128,126,123,120,120,121,124,114,121,118,124,122,127,124,127,124,133,131,135,135,141,138,138,130,133,133,140,136,140,145,148,148,154,160,161,169,160,160,154,155,151,151,155,148,147,146,146,146,143,140,143,140,141,146,146,159,156,163,159,155,151,147,153,151,151,157,156,150,155,154,155,152,154,154,148,154,145,152,150,152,145,145,143,143,140,143,143,146,146,146,150,148,150,153,153,151,153,149,140,146,145,145,145,148,148,148,150,153,157,155,157,145,151,140,147,142,142,147,151,152,150,153,153,152,157,152,152,149,152,150,156,160,160,160,155,148,145,143,143,137,0,132,132,129,125,130,128,0,0,0,0,0,0,0,0,0,0,0,0,0,0,0,0,0,0,0,0,0,0,0,0,0,0,0,0,0,0,0
0,0,0,0,0,0,0,0,0,0,0,0,0,0,0,0,0,0,0,0,0,0,0,0,0,0,0,0,0,0,0,0,0,0,0,0,0,0,0,0,0,0,0,0,0,0,0,0,0,0,0,0,0,0,0,0,0,0,0,0,0,0,0,0,0,0,0,0,0,0,0,0,0,0,0,0,0,0,0,0,0,0,0,0,0,0,0,0,0,0,0,0,0,0,0,0,0,0,0,0,0,0,0,0,0,0,0,0,0,0,160,160,160,156,154,151,148,148,145,145,145,142,140,142,134,134,130,127,122,122,119,122,124,131,144,137,130,124,122,118,122,124,122,122,121,119,121,123,115,120,118,118,116,112,114,113,124,134,128,126,120,121,121,116,122,118,122,126,122,128,128,133,131,133,134,138,143,151,144,135,141,137,135,137,143,142,143,154,154,160,168,166,165,163,166,163,155,153,147,148,148,147,146,146,143,143,139,136,140,145,144,158,161,161,161,164,170,165,167,160,155,153,153,153,154,147,150,155,152,154,154,150,152,147,147,147,147,148,142,148,150,152,143,143,146,143,148,150,148,148,153,153,153,149,151,149,151,153,153,143,148,151,148,148,158,156,163,163,156,151,149,142,144,143,151,151,152,149,153,153,154,158,155,152,152,152,152,158,160,164,161,159,147,145,146,141,0,0,0,0,0,0,0,0,0,0,0,0,0,0,0,0,0,0,0,0,0,0,0,0,0,0,0,0,0,0,0,0,0,0,0,0,0,0,0
